# .PCD v0.7 - Point Cloud Data file format
VERSION 0.7
FIELDS x y z rgb label
SIZE 4 4 4 4 4
TYPE F F F F U
COUNT 1 1 1 1 1
WIDTH 771
HEIGHT 1
VIEWPOINT 0 0 0 1 0 0 0
POINTS 771
DATA ascii
0.423993 -0.466205 -5.538583 1.880790849211783e-38 1635415379
0.438386 -0.239007 -5.726598 1.880790849211783e-38 1635415379
0.440068 -0.212818 -5.748580 1.880790849211783e-38 1635415379
0.425923 -0.432967 -5.563793 1.880790849211783e-38 1635415379
0.428066 -0.399608 -5.591794 1.880790849211783e-38 1635415379
0.448996 -0.177455 -5.865203 1.880790849211783e-38 1635415379
0.464176 -0.153620 -6.063491 1.880790849211783e-38 1635415379
0.429811 -0.372460 -5.614582 1.880790849211783e-38 1635415379
0.431993 -0.338487 -5.643097 1.880790849211783e-38 1635415379
0.445848 -1.111739 -5.824078 1.880790849211783e-38 1635415379
0.433828 -1.036456 -5.667064 1.880790849211783e-38 1635415379
0.423868 -0.962714 -5.536953 1.880790849211783e-38 1635415379
0.417211 -0.902902 -5.450001 1.880790849211783e-38 1635415379
0.416393 -0.853181 -5.439312 1.880790849211783e-38 1635415379
0.397359 -0.676403 -5.404802 1.880790849211783e-38 1635415379
0.397402 -0.648779 -5.405394 1.880790849211783e-38 1635415379
0.397453 -0.616727 -5.406080 1.880790849211783e-38 1635415379
0.398717 -0.580895 -5.423276 1.880790849211783e-38 1635415379
0.398841 -0.815695 -5.424965 1.880790849211783e-38 1635415379
0.398263 -0.778982 -5.417101 1.880790849211783e-38 1635415379
0.399869 -0.558048 -5.438947 1.880790849211783e-38 1635415379
0.401657 -0.524710 -5.463273 1.880790849211783e-38 1635415379
0.397776 -0.748088 -5.410484 1.880790849211783e-38 1635415379
0.397296 -0.716171 -5.403952 1.880790849211783e-38 1635415379
0.415358 -0.301746 -5.649621 1.880790849211783e-38 1635415379
0.416999 -0.275037 -5.671944 1.880790849211783e-38 1635415379
0.403964 -0.487179 -5.494641 1.880790849211783e-38 1635415379
0.405386 -0.464030 -5.513988 1.880790849211783e-38 1635415379
0.419277 -0.237966 -5.702927 1.880790849211783e-38 1635415379
0.420879 -0.211887 -5.724722 1.880790849211783e-38 1635415379
0.407407 -0.431133 -5.541481 1.880790849211783e-38 1635415379
0.409449 -0.397907 -5.569252 1.880790849211783e-38 1635415379
0.429674 -0.176784 -5.844352 1.880790849211783e-38 1635415379
0.436122 -0.150256 -5.932050 1.880790849211783e-38 1635415379
0.411110 -0.370868 -5.591850 1.880790849211783e-38 1635415379
0.413189 -0.337033 -5.620128 1.880790849211783e-38 1635415379
0.419181 -1.088120 -5.701630 1.880790849211783e-38 1635415379
0.410525 -1.021014 -5.583889 1.880790849211783e-38 1635415379
0.403385 -0.953772 -5.486767 1.880790849211783e-38 1635415379
0.400199 -0.901610 -5.443429 1.880790849211783e-38 1635415379
0.399412 -0.851956 -5.432732 1.880790849211783e-38 1635415379
0.379817 -0.674204 -5.388403 1.880790849211783e-38 1635415379
0.379390 -0.645872 -5.382342 1.880790849211783e-38 1635415379
0.378896 -0.613086 -5.375328 1.880790849211783e-38 1635415379
0.380337 -0.577823 -5.395769 1.880790849211783e-38 1635415379
0.381934 -0.814535 -5.418426 1.880790849211783e-38 1635415379
0.381381 -0.777875 -5.410583 1.880790849211783e-38 1635415379
0.381651 -0.555411 -5.414421 1.880790849211783e-38 1635415379
0.383580 -0.522533 -5.441782 1.880790849211783e-38 1635415379
0.380916 -0.747027 -5.403983 1.880790849211783e-38 1635415379
0.380434 -0.715115 -5.397156 1.880790849211783e-38 1635415379
0.396607 -0.300452 -5.626599 1.880790849211783e-38 1635415379
0.398168 -0.273852 -5.648736 1.880790849211783e-38 1635415379
0.385773 -0.485145 -5.472895 1.880790849211783e-38 1635415379
0.387126 -0.462087 -5.492085 1.880790849211783e-38 1635415379
0.400333 -0.236935 -5.679459 1.880790849211783e-38 1635415379
0.401857 -0.210966 -5.701071 1.880790849211783e-38 1635415379
0.389048 -0.429319 -5.519355 1.880790849211783e-38 1635415379
0.390989 -0.396224 -5.546898 1.880790849211783e-38 1635415379
0.410508 -0.176124 -5.823799 1.880790849211783e-38 1635415379
0.416616 -0.149677 -5.910453 1.880790849211783e-38 1635415379
0.392569 -0.369293 -5.569309 1.880790849211783e-38 1635415379
0.394546 -0.335595 -5.597353 1.880790849211783e-38 1635415379
0.436118 -0.107236 -6.187137 1.880790849211783e-38 1635415379
0.395912 -1.071685 -5.616734 1.880790849211783e-38 1635415379
0.448053 -1.877138 -6.356443 1.880790849211783e-38 1635415379
0.389755 -1.010829 -5.529392 1.880790849211783e-38 1635415379
0.385982 -0.951670 -5.475865 1.880790849211783e-38 1635415379
0.383234 -0.900329 -5.436877 1.880790849211783e-38 1635415379
0.382480 -0.850742 -5.426171 1.880790849211783e-38 1635415379
0.363056 -0.673258 -5.381964 1.880790849211783e-38 1635415379
0.362648 -0.644967 -5.375917 1.880790849211783e-38 1635415379
0.362301 -0.612439 -5.370774 1.880790849211783e-38 1635415379
0.362826 -0.575861 -5.378567 1.880790849211783e-38 1635415379
0.365075 -0.813385 -5.411907 1.880790849211783e-38 1635415379
0.364548 -0.776780 -5.404085 1.880790849211783e-38 1635415379
0.363822 -0.553131 -5.393324 1.880790849211783e-38 1635415379
0.365653 -0.520378 -5.420467 1.880790849211783e-38 1635415379
0.364104 -0.745976 -5.397503 1.880790849211783e-38 1635415379
0.363644 -0.714110 -5.390692 1.880790849211783e-38 1635415379
0.378018 -0.299171 -5.603775 1.880790849211783e-38 1635415379
0.379499 -0.272680 -5.625728 1.880790849211783e-38 1635415379
0.367735 -0.483133 -5.451330 1.880790849211783e-38 1635415379
0.369019 -0.460163 -5.470365 1.880790849211783e-38 1635415379
0.381555 -0.235915 -5.656194 1.880790849211783e-38 1635415379
0.383000 -0.210055 -5.677624 1.880790849211783e-38 1635415379
0.370844 -0.427523 -5.497413 1.880790849211783e-38 1635415379
0.372686 -0.394558 -5.524730 1.880790849211783e-38 1635415379
0.391484 -0.175471 -5.803396 1.880790849211783e-38 1635415379
0.397265 -0.149104 -5.889087 1.880790849211783e-38 1635415379
0.374186 -0.367734 -5.546958 1.880790849211783e-38 1635415379
0.376062 -0.334171 -5.574770 1.880790849211783e-38 1635415379
0.407140 -0.104586 -6.035475 1.880790849211783e-38 1635415379
0.383674 -1.144411 -5.687606 1.880790849211783e-38 1635415379
0.375500 -1.061869 -5.566446 1.880790849211783e-38 1635415379
0.428268 -1.874454 -6.348673 1.880790849211783e-38 1635415379
0.429072 -1.829757 -6.360595 1.880790849211783e-38 1635415379
0.372254 -1.008596 -5.518323 1.880790849211783e-38 1635415379
0.368627 -0.949507 -5.464556 1.880790849211783e-38 1635415379
0.366319 -0.899060 -5.430346 1.880790849211783e-38 1635415379
0.365597 -0.849541 -5.419633 1.880790849211783e-38 1635415379
0.346339 -0.672321 -5.375541 1.880790849211783e-38 1635415379
0.345951 -0.644070 -5.369512 1.880790849211783e-38 1635415379
0.345878 -0.612044 -5.368381 1.880790849211783e-38 1635415379
0.346379 -0.575489 -5.376165 1.880790849211783e-38 1635415379
0.348264 -0.812247 -5.405407 1.880790849211783e-38 1635415379
0.347761 -0.775694 -5.397605 1.880790849211783e-38 1635415379
0.346705 -0.551780 -5.381215 1.880790849211783e-38 1635415379
0.347871 -0.518244 -5.399320 1.880790849211783e-38 1635415379
0.347338 -0.744935 -5.391040 1.880790849211783e-38 1635415379
0.346900 -0.713115 -5.384248 1.880790849211783e-38 1635415379
0.359586 -0.297903 -5.581141 1.880790849211783e-38 1635415379
0.360988 -0.271520 -5.602912 1.880790849211783e-38 1635415379
0.349844 -0.481142 -5.429937 1.880790849211783e-38 1635415379
0.351060 -0.458260 -5.448818 1.880790849211783e-38 1635415379
0.362935 -0.234906 -5.633123 1.880790849211783e-38 1635415379
0.364304 -0.209153 -5.654376 1.880790849211783e-38 1635415379
0.352789 -0.425746 -5.475648 1.880790849211783e-38 1635415379
0.354535 -0.392910 -5.502742 1.880790849211783e-38 1635415379
0.371992 -0.174538 -5.773695 1.880790849211783e-38 1635415379
0.378081 -0.148546 -5.868210 1.880790849211783e-38 1635415379
0.355955 -0.366192 -5.524790 1.880790849211783e-38 1635415379
0.357732 -0.332763 -5.552375 1.880790849211783e-38 1635415379
0.387416 -0.104177 -6.013102 1.880790849211783e-38 1635415379
0.393668 -0.074568 -6.110127 1.880790849211783e-38 1635415379
0.362036 -1.130416 -5.619171 1.880790849211783e-38 1635415379
0.357916 -1.059519 -5.555232 1.880790849211783e-38 1635415379
0.408537 -1.871792 -6.340919 1.880790849211783e-38 1635415379
0.409303 -1.827154 -6.352810 1.880790849211783e-38 1635415379
0.354829 -1.006383 -5.507311 1.880790849211783e-38 1635415379
0.351259 -0.947120 -5.451903 1.880790849211783e-38 1635415379
0.349451 -0.897804 -5.423834 1.880790849211783e-38 1635415379
0.348760 -0.848350 -5.413114 1.880790849211783e-38 1635415379
0.329669 -0.671393 -5.369139 1.880790849211783e-38 1635415379
0.329300 -0.643182 -5.363123 1.880790849211783e-38 1635415379
0.329476 -0.611656 -5.365990 1.880790849211783e-38 1635415379
0.329953 -0.575123 -5.373766 1.880790849211783e-38 1635415379
0.331498 -0.811120 -5.398928 1.880790849211783e-38 1635415379
0.331021 -0.774619 -5.391147 1.880790849211783e-38 1635415379
0.330263 -0.551428 -5.378809 1.880790849211783e-38 1635415379
0.330715 -0.516883 -5.386163 1.880790849211783e-38 1635415379
0.330619 -0.743903 -5.384598 1.880790849211783e-38 1635415379
0.330203 -0.712129 -5.377824 1.880790849211783e-38 1635415379
0.341308 -0.296649 -5.558695 1.880790849211783e-38 1635415379
0.342634 -0.270373 -5.580286 1.880790849211783e-38 1635415379
0.332099 -0.479170 -5.408716 1.880790849211783e-38 1635415379
0.333249 -0.456376 -5.427446 1.880790849211783e-38 1635415379
0.344474 -0.233908 -5.610249 1.880790849211783e-38 1635415379
0.345768 -0.208261 -5.631323 1.880790849211783e-38 1635415379
0.334884 -0.423987 -5.454060 1.880790849211783e-38 1635415379
0.336534 -0.391279 -5.480936 1.880790849211783e-38 1635415379
0.352599 -0.173565 -5.742578 1.880790849211783e-38 1635415379
0.359040 -0.147994 -5.847485 1.880790849211783e-38 1635415379
0.337877 -0.364665 -5.502805 1.880790849211783e-38 1635415379
0.339556 -0.331369 -5.530166 1.880790849211783e-38 1635415379
0.367846 -0.103773 -5.990900 1.880790849211783e-38 1635415379
0.373758 -0.074274 -6.087185 1.880790849211783e-38 1635415379
0.344320 -1.127904 -5.607747 1.880790849211783e-38 1635415379
0.340411 -1.057191 -5.544078 1.880790849211783e-38 1635415379
0.388862 -1.869154 -6.333182 1.880790849211783e-38 1635415379
0.389591 -1.824574 -6.345042 1.880790849211783e-38 1635415379
0.390539 -1.766490 -6.360494 1.880790849211783e-38 1635415379
0.337481 -1.004191 -5.496358 1.880790849211783e-38 1635415379
0.333979 -0.944756 -5.439325 1.880790849211783e-38 1635415379
0.332629 -0.896559 -5.417343 1.880790849211783e-38 1635415379
0.331970 -0.847171 -5.406614 1.880790849211783e-38 1635415379
0.313047 -0.670474 -5.362756 1.880790849211783e-38 1635415379
0.312710 -0.642331 -5.356993 1.880790849211783e-38 1635415379
0.313096 -0.611273 -5.363600 1.880790849211783e-38 1635415379
0.313549 -0.574763 -5.371368 1.880790849211783e-38 1635415379
0.314781 -0.810003 -5.392469 1.880790849211783e-38 1635415379
0.314328 -0.773554 -5.384707 1.880790849211783e-38 1635415379
0.313843 -0.551083 -5.376407 1.880790849211783e-38 1635415379
0.314272 -0.516559 -5.383751 1.880790849211783e-38 1635415379
0.313947 -0.742882 -5.378175 1.880790849211783e-38 1635415379
0.313552 -0.711152 -5.371418 1.880790849211783e-38 1635415379
0.323185 -0.295407 -5.536438 1.880790849211783e-38 1635415379
0.324435 -0.269237 -5.557851 1.880790849211783e-38 1635415379
0.314756 -0.477607 -5.392039 1.880790849211783e-38 1635415379
0.315585 -0.454511 -5.406247 1.880790849211783e-38 1635415379
0.326170 -0.232920 -5.587567 1.880790849211783e-38 1635415379
0.327390 -0.207378 -5.608467 1.880790849211783e-38 1635415379
0.317127 -0.422246 -5.432649 1.880790849211783e-38 1635415379
0.318683 -0.389664 -5.459309 1.880790849211783e-38 1635415379
0.333422 -0.172603 -5.711802 1.880790849211783e-38 1635415379
0.340141 -0.147446 -5.826910 1.880790849211783e-38 1635415379
0.319949 -0.363155 -5.481001 1.880790849211783e-38 1635415379
0.321533 -0.329989 -5.508139 1.880790849211783e-38 1635415379
0.348428 -0.103372 -5.968868 1.880790849211783e-38 1635415379
0.354006 -0.073983 -6.064423 1.880790849211783e-38 1635415379
0.326685 -1.125415 -5.596385 1.880790849211783e-38 1635415379
0.322984 -1.054885 -5.532984 1.880790849211783e-38 1635415379
0.369244 -1.866539 -6.325465 1.880790849211783e-38 1635415379
0.369934 -1.822016 -6.337293 1.880790849211783e-38 1635415379
0.370834 -1.764008 -6.352705 1.880790849211783e-38 1635415379
0.368241 -1.931220 -6.308281 1.880790849211783e-38 1635415379
0.320210 -1.002020 -5.485464 1.880790849211783e-38 1635415379
0.316786 -0.942414 -5.426819 1.880790849211783e-38 1635415379
0.315855 -0.895326 -5.410872 1.880790849211783e-38 1635415379
0.315229 -0.846003 -5.400135 1.880790849211783e-38 1635415379
0.331557 -1.206166 -5.679848 1.880790849211783e-38 1635415379
0.296468 -0.669563 -5.356390 1.880790849211783e-38 1635415379
0.296370 -0.641935 -5.354613 1.880790849211783e-38 1635415379
0.296735 -0.610896 -5.361213 1.880790849211783e-38 1635415379
0.297164 -0.574408 -5.368972 1.880790849211783e-38 1635415379
0.298108 -0.808897 -5.386028 1.880790849211783e-38 1635415379
0.297680 -0.772499 -5.378286 1.880790849211783e-38 1635415379
0.297443 -0.550742 -5.374006 1.880790849211783e-38 1635415379
0.297849 -0.516239 -5.381343 1.880790849211783e-38 1635415379
0.297319 -0.741870 -5.371771 1.880790849211783e-38 1635415379
0.296946 -0.710185 -5.365031 1.880790849211783e-38 1635415379
0.305211 -0.294179 -5.514360 1.880790849211783e-38 1635415379
0.306387 -0.268113 -5.535600 1.880790849211783e-38 1635415379
0.298307 -0.477310 -5.389621 1.880790849211783e-38 1635415379
0.298588 -0.453462 -5.394693 1.880790849211783e-38 1635415379
0.308018 -0.231943 -5.565073 1.880790849211783e-38 1635415379
0.309165 -0.206505 -5.585801 1.880790849211783e-38 1635415379
0.299513 -0.420523 -5.411408 1.880790849211783e-38 1635415379
0.300977 -0.388066 -5.437855 1.880790849211783e-38 1635415379
0.314454 -0.171654 -5.681354 1.880790849211783e-38 1635415379
0.321380 -0.146904 -5.806481 1.880790849211783e-38 1635415379
0.302168 -0.361660 -5.459372 1.880790849211783e-38 1635415379
0.303658 -0.328624 -5.486293 1.880790849211783e-38 1635415379
0.329161 -0.102977 -5.947071 1.880790849211783e-38 1635415379
0.334406 -0.073695 -6.041835 1.880790849211783e-38 1635415379
0.309126 -1.122950 -5.585084 1.880790849211783e-38 1635415379
0.305631 -1.052601 -5.521948 1.880790849211783e-38 1635415379
0.349679 -1.863947 -6.317764 1.880790849211783e-38 1635415379
0.350331 -1.819481 -6.329562 1.880790849211783e-38 1635415379
0.351182 -1.761548 -6.344933 1.880790849211783e-38 1635415379
0.351966 -1.708195 -6.359088 1.880790849211783e-38 1635415379
0.348730 -1.928545 -6.300624 1.880790849211783e-38 1635415379
0.302922 -0.999570 -5.472991 1.880790849211783e-38 1635415379
0.299688 -0.940124 -5.414561 1.880790849211783e-38 1635415379
0.299126 -0.894106 -5.404421 1.880790849211783e-38 1635415379
0.298532 -0.844845 -5.393674 1.880790849211783e-38 1635415379
0.312985 -1.200643 -5.654809 1.880790849211783e-38 1635415379
0.279934 -0.668661 -5.350045 1.880790849211783e-38 1635415379
0.280049 -0.641546 -5.352235 1.880790849211783e-38 1635415379
0.280394 -0.610525 -5.358828 1.880790849211783e-38 1635415379
0.280799 -0.574059 -5.366578 1.880790849211783e-38 1635415379
0.281481 -0.807801 -5.379605 1.880790849211783e-38 1635415379
0.281077 -0.771454 -5.371884 1.880790849211783e-38 1635415379
0.281062 -0.550407 -5.371606 1.880790849211783e-38 1635415379
0.281446 -0.515924 -5.378935 1.880790849211783e-38 1635415379
0.280737 -0.740868 -5.365385 1.880790849211783e-38 1635415379
0.280385 -0.709227 -5.358664 1.880790849211783e-38 1635415379
0.287386 -0.292963 -5.492464 1.880790849211783e-38 1635415379
0.288488 -0.267001 -5.513530 1.880790849211783e-38 1635415379
0.281879 -0.477019 -5.387206 1.880790849211783e-38 1635415379
0.282144 -0.453185 -5.392272 1.880790849211783e-38 1635415379
0.290018 -0.230975 -5.542764 1.880790849211783e-38 1635415379
0.291094 -0.205640 -5.563324 1.880790849211783e-38 1635415379
0.282518 -0.419524 -5.399426 1.880790849211783e-38 1635415379
0.283415 -0.386485 -5.416574 1.880790849211783e-38 1635415379
0.295693 -0.170716 -5.651232 1.880790849211783e-38 1635415379
0.302705 -0.146343 -5.785236 1.880790849211783e-38 1635415379
0.284532 -0.360180 -5.437919 1.880790849211783e-38 1635415379
0.285929 -0.327273 -5.464622 1.880790849211783e-38 1635415379
0.310058 -0.102592 -5.925771 1.880790849211783e-38 1635415379
0.314958 -0.073410 -6.019419 1.880790849211783e-38 1635415379
0.321079 -0.037153 -6.136391 1.880790849211783e-38 1635415379
0.291644 -1.120508 -5.573844 1.880790849211783e-38 1635415379
0.288355 -1.050337 -5.510971 1.880790849211783e-38 1635415379
0.329834 -1.859502 -6.303721 1.880790849211783e-38 1635415379
0.330390 -1.814814 -6.314352 1.880790849211783e-38 1635415379
0.331115 -1.756616 -6.328196 1.880790849211783e-38 1635415379
0.331915 -1.703731 -6.343500 1.880790849211783e-38 1635415379
0.329026 -1.924452 -6.288271 1.880790849211783e-38 1635415379
0.285706 -0.997099 -5.460349 1.880790849211783e-38 1635415379
0.282972 -0.938850 -5.408103 1.880790849211783e-38 1635415379
0.282443 -0.892896 -5.397989 1.880790849211783e-38 1635415379
0.281880 -0.843700 -5.387234 1.880790849211783e-38 1635415379
0.295277 -1.198000 -5.643276 1.880790849211783e-38 1635415379
0.263468 -0.667827 -5.344192 1.880790849211783e-38 1635415379
0.263748 -0.641163 -5.349858 1.880790849211783e-38 1635415379
0.264072 -0.610160 -5.356444 1.880790849211783e-38 1635415379
0.264454 -0.573715 -5.364187 1.880790849211783e-38 1635415379
0.264899 -0.806716 -5.373204 1.880790849211783e-38 1635415379
0.264519 -0.770420 -5.365501 1.880790849211783e-38 1635415379
0.264702 -0.550077 -5.369208 1.880790849211783e-38 1635415379
0.265063 -0.515615 -5.376531 1.880790849211783e-38 1635415379
0.264199 -0.739875 -5.359019 1.880790849211783e-38 1635415379
0.263869 -0.708278 -5.352313 1.880790849211783e-38 1635415379
0.269707 -0.291760 -5.470745 1.880790849211783e-38 1635415379
0.270738 -0.265900 -5.491643 1.880790849211783e-38 1635415379
0.265470 -0.476732 -5.384792 1.880790849211783e-38 1635415379
0.265719 -0.452912 -5.389853 1.880790849211783e-38 1635415379
0.272167 -0.230018 -5.520639 1.880790849211783e-38 1635415379
0.273172 -0.204785 -5.541031 1.880790849211783e-38 1635415379
0.266072 -0.419271 -5.397000 1.880790849211783e-38 1635415379
0.266425 -0.385541 -5.404167 1.880790849211783e-38 1635415379
0.277136 -0.169790 -5.621431 1.880790849211783e-38 1635415379
0.283671 -0.145530 -5.753986 1.880790849211783e-38 1635415379
0.267040 -0.358716 -5.416636 1.880790849211783e-38 1635415379
0.268346 -0.325935 -5.443126 1.880790849211783e-38 1635415379
0.291098 -0.102210 -5.904629 1.880790849211783e-38 1635415379
0.295660 -0.073127 -5.997174 1.880790849211783e-38 1635415379
0.301383 -0.037008 -6.113256 1.880790849211783e-38 1635415379
0.274239 -1.118089 -5.562663 1.880790849211783e-38 1635415379
0.271152 -1.048095 -5.500050 1.880790849211783e-38 1635415379
0.309674 -1.852643 -6.281434 1.880790849211783e-38 1635415379
0.310195 -1.808110 -6.291987 1.880790849211783e-38 1635415379
0.310872 -1.750112 -6.305731 1.880790849211783e-38 1635415379
0.312021 -1.699587 -6.329039 1.880790849211783e-38 1635415379
0.308847 -1.916931 -6.264656 1.880790849211783e-38 1635415379
0.268575 -0.994651 -5.447781 1.880790849211783e-38 1635415379
0.266302 -0.937588 -5.401664 1.880790849211783e-38 1635415379
0.265804 -0.891699 -5.391574 1.880790849211783e-38 1635415379
0.265274 -0.842565 -5.380811 1.880790849211783e-38 1635415379
0.284288 -1.266456 -5.766490 1.880790849211783e-38 1635415379
0.277648 -1.195381 -5.631804 1.880790849211783e-38 1635415379
0.247205 -0.667435 -5.341823 1.880790849211783e-38 1635415379
0.247467 -0.640785 -5.347481 1.880790849211783e-38 1635415379
0.247771 -0.609801 -5.354062 1.880790849211783e-38 1635415379
0.248129 -0.573377 -5.361797 1.880790849211783e-38 1635415379
0.248362 -0.805642 -5.366821 1.880790849211783e-38 1635415379
0.248006 -0.769395 -5.359137 1.880790849211783e-38 1635415379
0.248362 -0.549752 -5.366814 1.880790849211783e-38 1635415379
0.248700 -0.515310 -5.374128 1.880790849211783e-38 1635415379
0.247707 -0.738893 -5.352671 1.880790849211783e-38 1635415379
0.247398 -0.707338 -5.345982 1.880790849211783e-38 1635415379
0.252174 -0.290569 -5.449203 1.880790849211783e-38 1635415379
0.253134 -0.264811 -5.469934 1.880790849211783e-38 1635415379
0.249082 -0.476450 -5.382380 1.880790849211783e-38 1635415379
0.249316 -0.452644 -5.387435 1.880790849211783e-38 1635415379
0.254465 -0.229071 -5.498697 1.880790849211783e-38 1635415379
0.255401 -0.203938 -5.518925 1.880790849211783e-38 1635415379
0.249646 -0.419022 -5.394577 1.880790849211783e-38 1635415379
0.249978 -0.385312 -5.401735 1.880790849211783e-38 1635415379
0.258780 -0.168875 -5.591944 1.880790849211783e-38 1635415379
0.264849 -0.144728 -5.723079 1.880790849211783e-38 1635415379
0.250245 -0.358060 -5.407522 1.880790849211783e-38 1635415379
0.250906 -0.324612 -5.421807 1.880790849211783e-38 1635415379
0.272279 -0.101832 -5.883643 1.880790849211783e-38 1635415379
0.276523 -0.072850 -5.975353 1.880790849211783e-38 1635415379
0.281843 -0.036863 -6.090304 1.880790849211783e-38 1635415379
0.256910 -1.115693 -5.551541 1.880790849211783e-38 1635415379
0.253949 -1.045562 -5.487545 1.880790849211783e-38 1635415379
0.289642 -1.845710 -6.258828 1.880790849211783e-38 1635415379
0.290149 -1.801470 -6.269785 1.880790849211783e-38 1635415379
0.290864 -1.744174 -6.285242 1.880790849211783e-38 1635415379
0.292224 -1.695476 -6.314640 1.880790849211783e-38 1635415379
0.294066 -1.641145 -6.354438 1.880790849211783e-38 1635415379
0.289333 -1.984481 -6.252169 1.880790849211783e-38 1635415379
0.288780 -1.909175 -6.240210 1.880790849211783e-38 1635415379
0.251530 -0.992227 -5.435286 1.880790849211783e-38 1635415379
0.249677 -0.936339 -5.395244 1.880790849211783e-38 1635415379
0.249212 -0.890513 -5.385181 1.880790849211783e-38 1635415379
0.248713 -0.841441 -5.374409 1.880790849211783e-38 1635415379
0.265898 -1.261720 -5.745754 1.880790849211783e-38 1635415379
0.260097 -1.192787 -5.620394 1.880790849211783e-38 1635415379
0.230959 -0.667049 -5.339455 1.880790849211783e-38 1635415379
0.231204 -0.640415 -5.345108 1.880790849211783e-38 1635415379
0.231488 -0.609447 -5.351681 1.880790849211783e-38 1635415379
0.231823 -0.573044 -5.359408 1.880790849211783e-38 1635415379
0.231868 -0.804577 -5.360455 1.880790849211783e-38 1635415379
0.231536 -0.768380 -5.352790 1.880790849211783e-38 1635415379
0.232039 -0.549433 -5.364420 1.880790849211783e-38 1635415379
0.232355 -0.515010 -5.371727 1.880790849211783e-38 1635415379
0.231257 -0.737919 -5.346341 1.880790849211783e-38 1635415379
0.230969 -0.706407 -5.339669 1.880790849211783e-38 1635415379
0.234782 -0.289391 -5.427834 1.880790849211783e-38 1635415379
0.235672 -0.263733 -5.448399 1.880790849211783e-38 1635415379
0.232712 -0.476173 -5.379971 1.880790849211783e-38 1635415379
0.232930 -0.452380 -5.385022 1.880790849211783e-38 1635415379
0.236906 -0.228133 -5.476932 1.880790849211783e-38 1635415379
0.237774 -0.203101 -5.496995 1.880790849211783e-38 1635415379
0.233239 -0.418778 -5.392153 1.880790849211783e-38 1635415379
0.233548 -0.385086 -5.399305 1.880790849211783e-38 1635415379
0.240619 -0.167971 -5.562765 1.880790849211783e-38 1635415379
0.246231 -0.143935 -5.692502 1.880790849211783e-38 1635415379
0.233798 -0.357851 -5.405087 1.880790849211783e-38 1635415379
0.234109 -0.323997 -5.412272 1.880790849211783e-38 1635415379
0.253597 -0.101458 -5.862805 1.880790849211783e-38 1635415379
0.257535 -0.072579 -5.953851 1.880790849211783e-38 1635415379
0.262452 -0.036721 -6.067526 1.880790849211783e-38 1635415379
0.239655 -1.113319 -5.540478 1.880790849211783e-38 1635415379
0.236817 -1.043007 -5.474875 1.880790849211783e-38 1635415379
0.269671 -1.838265 -6.234423 1.880790849211783e-38 1635415379
0.270222 -1.794722 -6.247143 1.880790849211783e-38 1635415379
0.271255 -1.739998 -6.271040 1.880790849211783e-38 1635415379
0.272521 -1.691397 -6.300300 1.880790849211783e-38 1635415379
0.274150 -1.636670 -6.337966 1.880790849211783e-38 1635415379
0.269606 -1.978097 -6.232898 1.880790849211783e-38 1635415379
0.268873 -1.901497 -6.215952 1.880790849211783e-38 1635415379
0.234567 -0.989825 -5.422862 1.880790849211783e-38 1635415379
0.233096 -0.935102 -5.388844 1.880790849211783e-38 1635415379
0.232662 -0.889339 -5.378806 1.880790849211783e-38 1635415379
0.232197 -0.840333 -5.368056 1.880790849211783e-38 1635415379
0.247572 -1.256667 -5.723517 1.880790849211783e-38 1635415379
0.242621 -1.190218 -5.609047 1.880790849211783e-38 1635415379
0.214732 -0.666670 -5.337087 1.880790849211783e-38 1635415379
0.214960 -0.640050 -5.342735 1.880790849211783e-38 1635415379
0.215224 -0.609100 -5.349302 1.880790849211783e-38 1635415379
0.215534 -0.572717 -5.357021 1.880790849211783e-38 1635415379
0.215417 -0.803523 -5.354108 1.880790849211783e-38 1635415379
0.215110 -0.767375 -5.346462 1.880790849211783e-38 1635415379
0.215736 -0.549119 -5.362029 1.880790849211783e-38 1635415379
0.216029 -0.514715 -5.369327 1.880790849211783e-38 1635415379
0.214851 -0.736955 -5.340029 1.880790849211783e-38 1635415379
0.214583 -0.705486 -5.333373 1.880790849211783e-38 1635415379
0.217958 -0.288791 -5.417262 1.880790849211783e-38 1635415379
0.218351 -0.262665 -5.427036 1.880790849211783e-38 1635415379
0.216361 -0.475900 -5.377563 1.880790849211783e-38 1635415379
0.216564 -0.452120 -5.382607 1.880790849211783e-38 1635415379
0.219490 -0.227206 -5.455342 1.880790849211783e-38 1635415379
0.220291 -0.202271 -5.475245 1.880790849211783e-38 1635415379
0.216851 -0.418537 -5.389733 1.880790849211783e-38 1635415379
0.217138 -0.384865 -5.396878 1.880790849211783e-38 1635415379
0.222650 -0.167078 -5.533890 1.880790849211783e-38 1635415379
0.227815 -0.143152 -5.662249 1.880790849211783e-38 1635415379
0.217370 -0.357645 -5.402653 1.880790849211783e-38 1635415379
0.217659 -0.323811 -5.409831 1.880790849211783e-38 1635415379
0.235052 -0.101087 -5.842117 1.880790849211783e-38 1635415379
0.238688 -0.072309 -5.932505 1.880790849211783e-38 1635415379
0.243211 -0.036579 -6.044922 1.880790849211783e-38 1635415379
0.222473 -1.110968 -5.529473 1.880790849211783e-38 1635415379
0.219769 -1.040476 -5.462276 1.880790849211783e-38 1635415379
0.249862 -1.830895 -6.210210 1.880790849211783e-38 1635415379
0.250374 -1.787548 -6.222957 1.880790849211783e-38 1635415379
0.251740 -1.735856 -6.256898 1.880790849211783e-38 1635415379
0.252912 -1.687351 -6.286020 1.880790849211783e-38 1635415379
0.254342 -1.632230 -6.321570 1.880790849211783e-38 1635415379
0.250004 -1.971774 -6.213756 1.880790849211783e-38 1635415379
0.249282 -1.895097 -6.195811 1.880790849211783e-38 1635415379
0.217686 -0.987446 -5.410508 1.880790849211783e-38 1635415379
0.216558 -0.933877 -5.382462 1.880790849211783e-38 1635415379
0.216155 -0.888176 -5.372448 1.880790849211783e-38 1635415379
0.215724 -0.839236 -5.361725 1.880790849211783e-38 1635415379
0.229234 -1.250801 -5.697518 1.880790849211783e-38 1635415379
0.225220 -1.187674 -5.597759 1.880790849211783e-38 1635415379
0.198525 -0.666296 -5.334723 1.880790849211783e-38 1635415379
0.198735 -0.639691 -5.340365 1.880790849211783e-38 1635415379
0.198979 -0.608758 -5.346924 1.880790849211783e-38 1635415379
0.199266 -0.572395 -5.354636 1.880790849211783e-38 1635415379
0.199011 -0.802480 -5.347779 1.880790849211783e-38 1635415379
0.198727 -0.766380 -5.340153 1.880790849211783e-38 1635415379
0.199452 -0.548810 -5.359638 1.880790849211783e-38 1635415379
0.199723 -0.514425 -5.366930 1.880790849211783e-38 1635415379
0.198488 -0.736001 -5.333735 1.880790849211783e-38 1635415379
0.198241 -0.704573 -5.327097 1.880790849211783e-38 1635415379
0.201505 -0.288627 -5.414815 1.880790849211783e-38 1635415379
0.201713 -0.262313 -5.420395 1.880790849211783e-38 1635415379
0.200030 -0.475631 -5.375157 1.880790849211783e-38 1635415379
0.200217 -0.451865 -5.380198 1.880790849211783e-38 1635415379
0.202217 -0.226287 -5.433926 1.880790849211783e-38 1635415379
0.202951 -0.201451 -5.453670 1.880790849211783e-38 1635415379
0.200482 -0.418300 -5.387315 1.880790849211783e-38 1635415379
0.200748 -0.384647 -5.394452 1.880790849211783e-38 1635415379
0.204873 -0.166196 -5.505314 1.880790849211783e-38 1635415379
0.209600 -0.142379 -5.632321 1.880790849211783e-38 1635415379
0.200962 -0.357442 -5.400221 1.880790849211783e-38 1635415379
0.201229 -0.323627 -5.407393 1.880790849211783e-38 1635415379
0.216643 -0.100720 -5.821579 1.880790849211783e-38 1635415379
0.219982 -0.072043 -5.911317 1.880790849211783e-38 1635415379
0.224128 -0.036441 -6.022722 1.880790849211783e-38 1635415379
0.227883 -0.004483 -6.123642 1.880790849211783e-38 1635415379
0.205365 -1.108639 -5.518526 1.880790849211783e-38 1635415379
0.202805 -1.037969 -5.449751 1.880790849211783e-38 1635415379
0.230211 -1.823600 -6.186188 1.880790849211783e-38 1635415379
0.230930 -1.782325 -6.205496 1.880790849211783e-38 1635415379
0.232167 -1.730616 -6.238740 1.880790849211783e-38 1635415379
0.233397 -1.683338 -6.271803 1.880790849211783e-38 1635415379
0.234642 -1.627828 -6.305256 1.880790849211783e-38 1635415379
0.236683 -1.566532 -6.360111 1.880790849211783e-38 1635415379
0.230529 -1.965510 -6.194740 1.880790849211783e-38 1635415379
0.229866 -1.889095 -6.176908 1.880790849211783e-38 1635415379
0.200888 -0.985089 -5.398223 1.880790849211783e-38 1635415379
0.200065 -0.932664 -5.376099 1.880790849211783e-38 1635415379
0.218898 -1.347743 -5.882183 1.880790849211783e-38 1635415379
0.199693 -0.887024 -5.366110 1.880790849211783e-38 1635415379
0.199295 -0.838150 -5.355415 1.880790849211783e-38 1635415379
0.211069 -1.245012 -5.671810 1.880790849211783e-38 1635415379
0.207896 -1.185153 -5.586532 1.880790849211783e-38 1635415379
0.182334 -0.665930 -5.332359 1.880790849211783e-38 1635415379
0.182527 -0.639338 -5.337996 1.880790849211783e-38 1635415379
0.182751 -0.608422 -5.344548 1.880790849211783e-38 1635415379
0.183014 -0.572078 -5.352252 1.880790849211783e-38 1635415379
0.182645 -0.801447 -5.341468 1.880790849211783e-38 1635415379
0.182385 -0.765394 -5.333861 1.880790849211783e-38 1635415379
0.183185 -0.548506 -5.357249 1.880790849211783e-38 1635415379
0.183434 -0.514141 -5.364535 1.880790849211783e-38 1635415379
0.182166 -0.735055 -5.327459 1.880790849211783e-38 1635415379
0.182057 -0.704122 -5.324263 1.880790849211783e-38 1635415379
0.185070 -0.288465 -5.412372 1.880790849211783e-38 1635415379
0.185261 -0.262167 -5.417946 1.880790849211783e-38 1635415379
0.183715 -0.475367 -5.372754 1.880790849211783e-38 1635415379
0.183887 -0.451614 -5.377789 1.880790849211783e-38 1635415379
0.185523 -0.225917 -5.425630 1.880790849211783e-38 1635415379
0.185750 -0.200639 -5.432267 1.880790849211783e-38 1635415379
0.184131 -0.418068 -5.384899 1.880790849211783e-38 1635415379
0.184374 -0.384433 -5.392029 1.880790849211783e-38 1635415379
0.187281 -0.165324 -5.477030 1.880790849211783e-38 1635415379
0.191578 -0.141615 -5.602707 1.880790849211783e-38 1635415379
0.184571 -0.357243 -5.397792 1.880790849211783e-38 1635415379
0.184816 -0.323446 -5.404956 1.880790849211783e-38 1635415379
0.198365 -0.100356 -5.801186 1.880790849211783e-38 1635415379
0.201412 -0.071778 -5.890281 1.880790849211783e-38 1635415379
0.205193 -0.036304 -6.000875 1.880790849211783e-38 1635415379
0.208604 -0.004465 -6.100616 1.880790849211783e-38 1635415379
0.188267 -1.105975 -5.505856 1.880790849211783e-38 1635415379
0.185922 -1.035485 -5.437295 1.880790849211783e-38 1635415379
0.210807 -1.817173 -6.165049 1.880790849211783e-38 1635415379
0.211596 -1.777145 -6.188128 1.880790849211783e-38 1635415379
0.212634 -1.724810 -6.218479 1.880790849211783e-38 1635415379
0.213973 -1.679357 -6.257645 1.880790849211783e-38 1635415379
0.211748 -2.031742 -6.192578 1.880790849211783e-38 1635415379
0.215105 -1.623911 -6.290761 1.880790849211783e-38 1635415379
0.216912 -1.562292 -6.343582 1.880790849211783e-38 1635415379
0.211176 -1.959305 -6.175849 1.880790849211783e-38 1635415379
0.210570 -1.883148 -6.158127 1.880790849211783e-38 1635415379
0.184169 -0.982754 -5.386009 1.880790849211783e-38 1635415379
0.183613 -0.931463 -5.369753 1.880790849211783e-38 1635415379
0.200403 -1.342694 -5.860776 1.880790849211783e-38 1635415379
0.183272 -0.885884 -5.359790 1.880790849211783e-38 1635415379
0.182907 -0.837075 -5.349122 1.880790849211783e-38 1635415379
0.193072 -1.239297 -5.646382 1.880790849211783e-38 1635415379
0.190643 -1.182656 -5.575363 1.880790849211783e-38 1635415379
0.166161 -0.665569 -5.329997 1.880790849211783e-38 1635415379
0.166336 -0.638992 -5.335628 1.880790849211783e-38 1635415379
0.166540 -0.608092 -5.342174 1.880790849211783e-38 1635415379
0.166780 -0.571767 -5.349871 1.880790849211783e-38 1635415379
0.166322 -0.800424 -5.335176 1.880790849211783e-38 1635415379
0.166086 -0.764419 -5.327586 1.880790849211783e-38 1635415379
0.166936 -0.548208 -5.354862 1.880790849211783e-38 1635415379
0.167163 -0.513860 -5.362140 1.880790849211783e-38 1635415379
0.165887 -0.734119 -5.321201 1.880790849211783e-38 1635415379
0.165909 -0.703742 -5.321908 1.880790849211783e-38 1635415379
0.168653 -0.288307 -5.409929 1.880790849211783e-38 1635415379
0.168826 -0.262022 -5.415498 1.880790849211783e-38 1635415379
0.167419 -0.475108 -5.370350 1.880790849211783e-38 1635415379
0.167576 -0.451367 -5.375380 1.880790849211783e-38 1635415379
0.169066 -0.225793 -5.423174 1.880790849211783e-38 1635415379
0.169233 -0.200481 -5.428537 1.880790849211783e-38 1635415379
0.167797 -0.417839 -5.382484 1.880790849211783e-38 1635415379
0.168019 -0.384222 -5.389607 1.880790849211783e-38 1635415379
0.169872 -0.164463 -5.449033 1.880790849211783e-38 1635415379
0.173749 -0.140860 -5.573402 1.880790849211783e-38 1635415379
0.168199 -0.357047 -5.395364 1.880790849211783e-38 1635415379
0.168422 -0.323269 -5.402522 1.880790849211783e-38 1635415379
0.180219 -0.099996 -5.780936 1.880790849211783e-38 1635415379
0.182976 -0.071517 -5.869396 1.880790849211783e-38 1635415379
0.186399 -0.036170 -5.979190 1.880790849211783e-38 1635415379
0.189472 -0.004448 -6.077768 1.880790849211783e-38 1635415379
0.171247 -1.103314 -5.493150 1.880790849211783e-38 1635415379
0.169120 -1.033025 -5.424912 1.880790849211783e-38 1635415379
0.191659 -1.811940 -6.147903 1.880790849211783e-38 1635415379
0.192374 -1.772008 -6.170849 1.880790849211783e-38 1635415379
0.193310 -1.719758 -6.200877 1.880790849211783e-38 1635415379
0.194446 -1.673735 -6.237308 1.880790849211783e-38 1635415379
0.192438 -2.025087 -6.172902 1.880790849211783e-38 1635415379
0.195668 -1.620072 -6.276508 1.880790849211783e-38 1635415379
0.197246 -1.558087 -6.327132 1.880790849211783e-38 1635415379
0.191925 -1.952953 -6.156434 1.880790849211783e-38 1635415379
0.191385 -1.877153 -6.139129 1.880790849211783e-38 1635415379
0.167545 -0.980540 -5.374403 1.880790849211783e-38 1635415379
0.167203 -0.930274 -5.363428 1.880790849211783e-38 1635415379
0.196173 -1.480112 -6.292697 1.880790849211783e-38 1635415379
0.182047 -1.337704 -5.839572 1.880790849211783e-38 1635415379
0.166893 -0.884755 -5.353488 1.880790849211783e-38 1635415379
0.166561 -0.836011 -5.342844 1.880790849211783e-38 1635415379
0.175240 -1.233655 -5.621233 1.880790849211783e-38 1635415379
0.173464 -1.180183 -5.564252 1.880790849211783e-38 1635415379
0.150005 -0.665214 -5.327635 1.880790849211783e-38 1635415379
0.150163 -0.638651 -5.333261 1.880790849211783e-38 1635415379
0.150347 -0.607767 -5.339801 1.880790849211783e-38 1635415379
0.150564 -0.571462 -5.347490 1.880790849211783e-38 1635415379
0.150040 -0.799410 -5.328899 1.880790849211783e-38 1635415379
0.149827 -0.763453 -5.321330 1.880790849211783e-38 1635415379
0.150704 -0.547914 -5.352476 1.880790849211783e-38 1635415379
0.150909 -0.513585 -5.359747 1.880790849211783e-38 1635415379
0.149648 -0.733193 -5.314960 1.880790849211783e-38 1635415379
0.149777 -0.703367 -5.319555 1.880790849211783e-38 1635415379
0.152253 -0.288151 -5.407489 1.880790849211783e-38 1635415379
0.152410 -0.261881 -5.413053 1.880790849211783e-38 1635415379
0.151140 -0.474853 -5.367950 1.880790849211783e-38 1635415379
0.151281 -0.451125 -5.372975 1.880790849211783e-38 1635415379
0.152591 -0.225619 -5.419493 1.880790849211783e-38 1635415379
0.152711 -0.200287 -5.423753 1.880790849211783e-38 1635415379
0.151481 -0.417614 -5.380071 1.880790849211783e-38 1635415379
0.151682 -0.384015 -5.387187 1.880790849211783e-38 1635415379
0.153254 -0.164267 -5.443029 1.880790849211783e-38 1635415379
0.156108 -0.140115 -5.544402 1.880790849211783e-38 1635415379
0.151844 -0.356854 -5.392940 1.880790849211783e-38 1635415379
0.152045 -0.323094 -5.400090 1.880790849211783e-38 1635415379
0.162088 -0.099569 -5.756784 1.880790849211783e-38 1635415379
0.164675 -0.071258 -5.848661 1.880790849211783e-38 1635415379
0.167744 -0.036036 -5.957663 1.880790849211783e-38 1635415379
0.170498 -0.004431 -6.055472 1.880790849211783e-38 1635415379
0.154309 -1.100678 -5.480518 1.880790849211783e-38 1635415379
0.152397 -1.030587 -5.412597 1.880790849211783e-38 1635415379
0.172740 -1.808004 -6.135095 1.880790849211783e-38 1635415379
0.173263 -1.766915 -6.153666 1.880790849211783e-38 1635415379
0.174103 -1.714792 -6.183522 1.880790849211783e-38 1635415379
0.175047 -1.668146 -6.217037 1.880790849211783e-38 1635415379
0.173254 -2.018495 -6.153358 1.880790849211783e-38 1635415379
0.176302 -1.616084 -6.261620 1.880790849211783e-38 1635415379
0.177125 -1.549011 -6.290839 1.880790849211783e-38 1635415379
0.172793 -1.946612 -6.136994 1.880790849211783e-38 1635415379
0.172432 -1.872407 -6.124154 1.880790849211783e-38 1635415379
0.151143 -0.979296 -5.368067 1.880790849211783e-38 1635415379
0.150835 -0.929097 -5.357118 1.880790849211783e-38 1635415379
0.167501 -1.399149 -5.949017 1.880790849211783e-38 1635415379
0.163828 -1.332773 -5.818568 1.880790849211783e-38 1635415379
0.150556 -0.883638 -5.347203 1.880790849211783e-38 1635415379
0.150257 -0.834957 -5.336586 1.880790849211783e-38 1635415379
0.157619 -1.228462 -5.598072 1.880790849211783e-38 1635415379
0.156356 -1.177734 -5.553201 1.880790849211783e-38 1635415379
0.133867 -0.664866 -5.325275 1.880790849211783e-38 1635415379
0.134009 -0.638317 -5.330895 1.880790849211783e-38 1635415379
0.134173 -0.607449 -5.337430 1.880790849211783e-38 1635415379
0.134366 -0.571162 -5.345111 1.880790849211783e-38 1635415379
0.133801 -0.798408 -5.322642 1.880790849211783e-38 1635415379
0.133611 -0.762496 -5.315090 1.880790849211783e-38 1635415379
0.134491 -0.547626 -5.350092 1.880790849211783e-38 1635415379
0.134674 -0.513315 -5.357356 1.880790849211783e-38 1635415379
0.133507 -0.732580 -5.310941 1.880790849211783e-38 1635415379
0.133664 -0.703000 -5.317204 1.880790849211783e-38 1635415379
0.135807 -0.287858 -5.402431 1.880790849211783e-38 1635415379
0.135918 -0.261559 -5.406848 1.880790849211783e-38 1635415379
0.134880 -0.474603 -5.365551 1.880790849211783e-38 1635415379
0.135006 -0.450887 -5.370572 1.880790849211783e-38 1635415379
0.136071 -0.225328 -5.412934 1.880790849211783e-38 1635415379
0.136178 -0.200028 -5.417184 1.880790849211783e-38 1635415379
0.135184 -0.417394 -5.377661 1.880790849211783e-38 1635415379
0.135363 -0.383812 -5.384769 1.880790849211783e-38 1635415379
0.136963 -0.164417 -5.448439 1.880790849211783e-38 1635415379
0.138654 -0.139378 -5.515702 1.880790849211783e-38 1635415379
0.135507 -0.356665 -5.390516 1.880790849211783e-38 1635415379
0.135659 -0.322857 -5.396552 1.880790849211783e-38 1635415379
0.143937 -0.099026 -5.725834 1.880790849211783e-38 1635415379
0.146507 -0.071001 -5.828075 1.880790849211783e-38 1635415379
0.149227 -0.035904 -5.936294 1.880790849211783e-38 1635415379
0.151668 -0.004415 -6.033389 1.880790849211783e-38 1635415379
0.137454 -1.098068 -5.467961 1.880790849211783e-38 1635415379
0.135755 -1.028174 -5.400353 1.880790849211783e-38 1635415379
0.154036 -1.805647 -6.127591 1.880790849211783e-38 1635415379
0.154346 -1.762829 -6.139926 1.880790849211783e-38 1635415379
0.155008 -1.709867 -6.166260 1.880790849211783e-38 1635415379
0.155778 -1.662607 -6.196892 1.880790849211783e-38 1635415379
0.154196 -2.011966 -6.133947 1.880790849211783e-38 1635415379
0.156891 -1.610680 -6.241183 1.880790849211783e-38 1635415379
0.157005 -1.537772 -6.245695 1.880790849211783e-38 1635415379
0.153787 -1.940333 -6.117690 1.880790849211783e-38 1635415379
0.153740 -1.869711 -6.115827 1.880790849211783e-38 1635415379
0.134784 -0.978065 -5.361750 1.880790849211783e-38 1635415379
0.134510 -0.927931 -5.350828 1.880790849211783e-38 1635415379
0.149000 -1.393920 -5.927258 1.880790849211783e-38 1635415379
0.145732 -1.327783 -5.797248 1.880790849211783e-38 1635415379
0.134261 -0.882531 -5.340937 1.880790849211783e-38 1635415379
0.133995 -0.833913 -5.330346 1.880790849211783e-38 1635415379
0.140444 -1.225911 -5.586896 1.880790849211783e-38 1635415379
0.139321 -1.175308 -5.542205 1.880790849211783e-38 1635415379
0.117745 -0.664525 -5.322917 1.880790849211783e-38 1635415379
0.117869 -0.637988 -5.328531 1.880790849211783e-38 1635415379
0.118014 -0.607135 -5.335059 1.880790849211783e-38 1635415379
0.118183 -0.570867 -5.342733 1.880790849211783e-38 1635415379
0.117601 -0.797415 -5.316403 1.880790849211783e-38 1635415379
0.117434 -0.761549 -5.308867 1.880790849211783e-38 1635415379
0.118294 -0.547344 -5.347711 1.880790849211783e-38 1635415379
0.118454 -0.513049 -5.354967 1.880790849211783e-38 1635415379
0.117428 -0.732204 -5.308597 1.880790849211783e-38 1635415379
0.117567 -0.702639 -5.314853 1.880790849211783e-38 1635415379
0.119360 -0.287491 -5.395915 1.880790849211783e-38 1635415379
0.119457 -0.261225 -5.400321 1.880790849211783e-38 1635415379
0.118635 -0.474357 -5.363153 1.880790849211783e-38 1635415379
0.118746 -0.450653 -5.368169 1.880790849211783e-38 1635415379
0.119592 -0.225040 -5.406391 1.880790849211783e-38 1635415379
0.119812 -0.199983 -5.416358 1.880790849211783e-38 1635415379
0.118879 -0.417093 -5.374170 1.880790849211783e-38 1635415379
0.119004 -0.383432 -5.379818 1.880790849211783e-38 1635415379
0.120642 -0.164569 -5.453859 1.880790849211783e-38 1635415379
0.121381 -0.138650 -5.487296 1.880790849211783e-38 1635415379
0.119105 -0.356234 -5.384381 1.880790849211783e-38 1635415379
0.119230 -0.322445 -5.390049 1.880790849211783e-38 1635415379
0.125980 -0.098490 -5.695211 1.880790849211783e-38 1635415379
0.128467 -0.070747 -5.807633 1.880790849211783e-38 1635415379
0.130844 -0.035773 -5.915081 1.880790849211783e-38 1635415379
0.132976 -0.004399 -6.011471 1.880790849211783e-38 1635415379
0.120677 -1.095482 -5.455472 1.880790849211783e-38 1635415379
0.119189 -1.025782 -5.388174 1.880790849211783e-38 1635415379
0.135379 -1.803311 -6.120098 1.880790849211783e-38 1635415379
0.135651 -1.760543 -6.132403 1.880790849211783e-38 1635415379
0.136020 -1.704984 -6.149090 1.880790849211783e-38 1635415379
0.136635 -1.657117 -6.176869 1.880790849211783e-38 1635415379
0.135259 -2.005498 -6.114665 1.880790849211783e-38 1635415379
0.137608 -1.605323 -6.220869 1.880790849211783e-38 1635415379
0.137481 -1.530131 -6.215105 1.880790849211783e-38 1635415379
0.135059 -1.936366 -6.105618 1.880790849211783e-38 1635415379
0.135101 -1.867039 -6.107522 1.880790849211783e-38 1635415379
0.118465 -0.976846 -5.355450 1.880790849211783e-38 1635415379
0.118224 -0.926777 -5.344553 1.880790849211783e-38 1635415379
0.130637 -1.388753 -5.905707 1.880790849211783e-38 1635415379
0.127654 -1.321650 -5.770883 1.880790849211783e-38 1635415379
0.118006 -0.881436 -5.334687 1.880790849211783e-38 1635415379
0.117772 -0.832880 -5.324121 1.880790849211783e-38 1635415379
0.123339 -1.223384 -5.575777 1.880790849211783e-38 1635415379
0.122325 -1.172626 -5.529955 1.880790849211783e-38 1635415379
0.101639 -0.664189 -5.320560 1.880790849211783e-38 1635415379
0.101747 -0.637666 -5.326169 1.880790849211783e-38 1635415379
0.101871 -0.606828 -5.332690 1.880790849211783e-38 1635415379
0.102018 -0.570577 -5.340356 1.880790849211783e-38 1635415379
0.101442 -0.796437 -5.310213 1.880790849211783e-38 1635415379
0.101297 -0.760612 -5.302661 1.880790849211783e-38 1635415379
0.102113 -0.547066 -5.345329 1.880790849211783e-38 1635415379
0.102233 -0.512696 -5.351616 1.880790849211783e-38 1635415379
0.101366 -0.731835 -5.306253 1.880790849211783e-38 1635415379
0.101485 -0.702285 -5.312502 1.880790849211783e-38 1635415379
0.102955 -0.287126 -5.389413 1.880790849211783e-38 1635415379
0.103039 -0.260894 -5.393810 1.880790849211783e-38 1635415379
0.102357 -0.473882 -5.358120 1.880790849211783e-38 1635415379
0.102433 -0.450116 -5.362103 1.880790849211783e-38 1635415379
0.103154 -0.224754 -5.399865 1.880790849211783e-38 1635415379
0.103572 -0.200169 -5.421714 1.880790849211783e-38 1635415379
0.102540 -0.416567 -5.367724 1.880790849211783e-38 1635415379
0.102648 -0.382947 -5.373357 1.880790849211783e-38 1635415379
0.104290 -0.164722 -5.459287 1.880790849211783e-38 1635415379
0.104818 -0.138633 -5.486941 1.880790849211783e-38 1635415379
0.102735 -0.355784 -5.377909 1.880790849211783e-38 1635415379
0.102843 -0.322037 -5.383564 1.880790849211783e-38 1635415379
0.108218 -0.097960 -5.664914 1.880790849211783e-38 1635415379
0.110556 -0.070496 -5.787336 1.880790849211783e-38 1635415379
0.112594 -0.035644 -5.894019 1.880790849211783e-38 1635415379
0.114422 -0.004382 -5.989711 1.880790849211783e-38 1635415379
0.103979 -1.092920 -5.443054 1.880790849211783e-38 1635415379
0.102700 -1.023413 -5.376064 1.880790849211783e-38 1635415379
0.116770 -1.800996 -6.112622 1.880790849211783e-38 1635415379
0.117005 -1.758279 -6.124897 1.880790849211783e-38 1635415379
0.117310 -1.702606 -6.140894 1.880790849211783e-38 1635415379
0.117659 -1.652264 -6.159165 1.880790849211783e-38 1635415379
0.116444 -1.999103 -6.095544 1.880790849211783e-38 1635415379
0.118296 -1.597901 -6.192492 1.880790849211783e-38 1635415379
0.118150 -1.522581 -6.184823 1.880790849211783e-38 1635415379
0.116478 -1.933621 -6.097342 1.880790849211783e-38 1635415379
0.116515 -1.864392 -6.099243 1.880790849211783e-38 1635415379
0.102186 -0.975640 -5.349168 1.880790849211783e-38 1635415379
0.101978 -0.925635 -5.338297 1.880790849211783e-38 1635415379
0.112410 -1.383647 -5.884360 1.880790849211783e-38 1635415379
0.109744 -1.315597 -5.744809 1.880790849211783e-38 1635415379
0.101790 -0.880351 -5.328455 1.880790849211783e-38 1635415379
0.101589 -0.831857 -5.317914 1.880790849211783e-38 1635415379
0.106304 -1.220882 -5.564717 1.880790849211783e-38 1635415379
0.105396 -1.169847 -5.517192 1.880790849211783e-38 1635415379
0.085550 -0.663860 -5.318203 1.880790849211783e-38 1635415379
0.085640 -0.637349 -5.323807 1.880790849211783e-38 1635415379
0.085730 -0.606425 -5.329431 1.880790849211783e-38 1635415379
0.085828 -0.570031 -5.335521 1.880790849211783e-38 1635415379
0.085322 -0.795469 -5.304042 1.880790849211783e-38 1635415379
0.085223 -0.759889 -5.297903 1.880790849211783e-38 1635415379
0.085892 -0.546437 -5.339470 1.880790849211783e-38 1635415379
0.085984 -0.512057 -5.345223 1.880790849211783e-38 1635415379
0.085320 -0.731473 -5.303909 1.880790849211783e-38 1635415379
0.085420 -0.701937 -5.310153 1.880790849211783e-38 1635415379
0.086591 -0.286766 -5.382929 1.880790849211783e-38 1635415379
0.086661 -0.260566 -5.387314 1.880790849211783e-38 1635415379
0.086089 -0.473290 -5.351712 1.880790849211783e-38 1635415379
0.086153 -0.449553 -5.355685 1.880790849211783e-38 1635415379
0.086884 -0.224796 -5.401146 1.880790849211783e-38 1635415379
0.087301 -0.200356 -5.427077 1.880790849211783e-38 1635415379
0.086243 -0.416046 -5.361293 1.880790849211783e-38 1635415379
0.086333 -0.382468 -5.366913 1.880790849211783e-38 1635415379
0.087907 -0.164877 -5.464723 1.880790849211783e-38 1635415379
0.088352 -0.138764 -5.492431 1.880790849211783e-38 1635415379
0.086406 -0.355338 -5.371453 1.880790849211783e-38 1635415379
0.086497 -0.321633 -5.377095 1.880790849211783e-38 1635415379
0.090645 -0.097436 -5.634938 1.880790849211783e-38 1635415379
0.092772 -0.070246 -5.767179 1.880790849211783e-38 1635415379
0.094476 -0.035515 -5.873108 1.880790849211783e-38 1635415379
0.096004 -0.004366 -5.968113 1.880790849211783e-38 1635415379
0.087359 -1.090383 -5.430705 1.880790849211783e-38 1635415379
