# .PCD v0.7 - Point Cloud Data file format
VERSION 0.7
FIELDS x y z rgb label
SIZE 4 4 4 4 4
TYPE F F F F U
COUNT 1 1 1 1 1
WIDTH 758
HEIGHT 1
VIEWPOINT 0 0 0 1 0 0 0
POINTS 758
DATA ascii
-0.388973 -0.587503 -5.149136 1.880790849211783e-38 1635415379
-0.402440 -0.570711 -5.327398 1.880790849211783e-38 1635415379
-0.398516 -0.793333 -5.275452 1.880790849211783e-38 1635415379
-0.397592 -0.756968 -5.263225 1.880790849211783e-38 1635415379
-0.404431 -0.549389 -5.353755 1.880790849211783e-38 1635415379
-0.395289 -0.502644 -5.232734 1.880790849211783e-38 1635415379
-0.396480 -0.725801 -5.248507 1.880790849211783e-38 1635415379
-0.392724 -0.689084 -5.198783 1.880790849211783e-38 1635415379
-0.413699 -0.292541 -5.476452 1.880790849211783e-38 1635415379
-0.410459 -0.263517 -5.433560 1.880790849211783e-38 1635415379
-0.396887 -0.465903 -5.253894 1.880790849211783e-38 1635415379
-0.397449 -0.442834 -5.261331 1.880790849211783e-38 1635415379
-0.413299 -0.228329 -5.471156 1.880790849211783e-38 1635415379
-0.411186 -0.201497 -5.443181 1.880790849211783e-38 1635415379
-0.408617 -0.420903 -5.409173 1.880790849211783e-38 1635415379
-0.407952 -0.385899 -5.400372 1.880790849211783e-38 1635415379
-0.428550 -0.171628 -5.673036 1.880790849211783e-38 1635415379
-0.425302 -0.142628 -5.630050 1.880790849211783e-38 1635415379
-0.408844 -0.359005 -5.412173 1.880790849211783e-38 1635415379
-0.409674 -0.325271 -5.423171 1.880790849211783e-38 1635415379
-0.391120 -1.042382 -5.177552 1.880790849211783e-38 1635415379
-0.399824 -1.010242 -5.292768 1.880790849211783e-38 1635415379
-0.398041 -0.963611 -5.269165 1.880790849211783e-38 1635415379
-0.399020 -0.918337 -5.282128 1.880790849211783e-38 1635415379
-0.390799 -1.187876 -5.173298 1.880790849211783e-38 1635415379
-0.388669 -0.852326 -5.145108 1.880790849211783e-38 1635415379
-0.391186 -0.812197 -5.178424 1.880790849211783e-38 1635415379
-0.395321 -1.151201 -5.233162 1.880790849211783e-38 1635415379
-0.405994 -1.142619 -5.374452 1.880790849211783e-38 1635415379
-0.410523 -0.654097 -5.224569 1.880790849211783e-38 1635415379
-0.418380 -0.639321 -5.324563 1.880790849211783e-38 1635415379
-0.404366 -0.587306 -5.146216 1.880790849211783e-38 1635415379
-0.416890 -0.568508 -5.305609 1.880790849211783e-38 1635415379
-0.411387 -0.787519 -5.235570 1.880790849211783e-38 1635415379
-0.409965 -0.750563 -5.217476 1.880790849211783e-38 1635415379
-0.419629 -0.548152 -5.340463 1.880790849211783e-38 1635415379
-0.411604 -0.503299 -5.238333 1.880790849211783e-38 1635415379
-0.411733 -0.724789 -5.239971 1.880790849211783e-38 1635415379
-0.411056 -0.693563 -5.231361 1.880790849211783e-38 1635415379
-0.430283 -0.292588 -5.476050 1.880790849211783e-38 1635415379
-0.422331 -0.260730 -5.374847 1.880790849211783e-38 1635415379
-0.408840 -0.461511 -5.203158 1.880790849211783e-38 1635415379
-0.411927 -0.441347 -5.242441 1.880790849211783e-38 1635415379
-0.428445 -0.227610 -5.452657 1.880790849211783e-38 1635415379
-0.425734 -0.200617 -5.418156 1.880790849211783e-38 1635415379
-0.426027 -0.421991 -5.421893 1.880790849211783e-38 1635415379
-0.426995 -0.388407 -5.434212 1.880790849211783e-38 1635415379
-0.440592 -0.169677 -5.607245 1.880790849211783e-38 1635415379
-0.455323 -0.146834 -5.794730 1.880790849211783e-38 1635415379
-0.421543 -0.355947 -5.364818 1.880790849211783e-38 1635415379
-0.430055 -0.328345 -5.473153 1.880790849211783e-38 1635415379
-0.405491 -1.039195 -5.160527 1.880790849211783e-38 1635415379
-0.415793 -1.010261 -5.291637 1.880790849211783e-38 1635415379
-0.415992 -0.968410 -5.294176 1.880790849211783e-38 1635415379
-0.412029 -0.911875 -5.243743 1.880790849211783e-38 1635415379
-0.479038 -1.437695 -6.096538 1.880790849211783e-38 1635415379
-0.403999 -1.180860 -5.141547 1.880790849211783e-38 1635415379
-0.404081 -0.852107 -5.142591 1.880790849211783e-38 1635415379
-0.408323 -0.815235 -5.196581 1.880790849211783e-38 1635415379
-0.409087 -1.145559 -5.206304 1.880790849211783e-38 1635415379
-0.414730 -1.122398 -5.278113 1.880790849211783e-38 1635415379
-0.426492 -0.654427 -5.225946 1.880790849211783e-38 1635415379
-0.432050 -0.635811 -5.294046 1.880790849211783e-38 1635415379
-0.421255 -0.589224 -5.161777 1.880790849211783e-38 1635415379
-0.435538 -0.571987 -5.336783 1.880790849211783e-38 1635415379
-0.425402 -0.784251 -5.212585 1.880790849211783e-38 1635415379
-0.426895 -0.752672 -5.230877 1.880790849211783e-38 1635415379
-0.437235 -0.550043 -5.357588 1.880790849211783e-38 1635415379
-0.433861 -0.510907 -5.316241 1.880790849211783e-38 1635415379
-0.427973 -0.725534 -5.244093 1.880790849211783e-38 1635415379
-0.425038 -0.690650 -5.208130 1.880790849211783e-38 1635415379
-0.448232 -0.293529 -5.492331 1.880790849211783e-38 1635415379
-0.441906 -0.262733 -5.414815 1.880790849211783e-38 1635415379
-0.424276 -0.461235 -5.198795 1.880790849211783e-38 1635415379
-0.424418 -0.437924 -5.200532 1.880790849211783e-38 1635415379
-0.445690 -0.228020 -5.461179 1.880790849211783e-38 1635415379
-0.439372 -0.199392 -5.383768 1.880790849211783e-38 1635415379
-0.436669 -0.416546 -5.350643 1.880790849211783e-38 1635415379
-0.444165 -0.389094 -5.442502 1.880790849211783e-38 1635415379
-0.460405 -0.170755 -5.641490 1.880790849211783e-38 1635415379
-0.483190 -0.150062 -5.920684 1.880790849211783e-38 1635415379
-0.442448 -0.359791 -5.421457 1.880790849211783e-38 1635415379
-0.441625 -0.324717 -5.411371 1.880790849211783e-38 1635415379
-0.422295 -1.042263 -5.174512 1.880790849211783e-38 1635415379
-0.433133 -1.013501 -5.307323 1.880790849211783e-38 1635415379
-0.428893 -0.961543 -5.255366 1.880790849211783e-38 1635415379
-0.426872 -0.909810 -5.230603 1.880790849211783e-38 1635415379
-0.429730 -1.242048 -5.265627 1.880790849211783e-38 1635415379
-0.413600 -1.164243 -5.067972 1.880790849211783e-38 1635415379
-0.416749 -0.846341 -5.106560 1.880790849211783e-38 1635415379
-0.418253 -0.804198 -5.124993 1.880790849211783e-38 1635415379
-0.427417 -1.152653 -5.237281 1.880790849211783e-38 1635415379
-0.431208 -1.123865 -5.283735 1.880790849211783e-38 1635415379
-0.446943 -0.661370 -5.280062 1.880790849211783e-38 1635415379
-0.449143 -0.637412 -5.306044 1.880790849211783e-38 1635415379
-0.439702 -0.593110 -5.194510 1.880790849211783e-38 1635415379
-0.452024 -0.572484 -5.340083 1.880790849211783e-38 1635415379
-0.440426 -0.783015 -5.203066 1.880790849211783e-38 1635415379
-0.443275 -0.753703 -5.236730 1.880790849211783e-38 1635415379
-0.452028 -0.548388 -5.340128 1.880790849211783e-38 1635415379
-0.447569 -0.508268 -5.287452 1.880790849211783e-38 1635415379
-0.443897 -0.725713 -5.244071 1.880790849211783e-38 1635415379
-0.439493 -0.688690 -5.192049 1.880790849211783e-38 1635415379
-0.462095 -0.291824 -5.459065 1.880790849211783e-38 1635415379
-0.458101 -0.262656 -5.411874 1.880790849211783e-38 1635415379
-0.444987 -0.466512 -5.256954 1.880790849211783e-38 1635415379
-0.442470 -0.440282 -5.227221 1.880790849211783e-38 1635415379
-0.464182 -0.229019 -5.483716 1.880790849211783e-38 1635415379
-0.459447 -0.201072 -5.427780 1.880790849211783e-38 1635415379
-0.457017 -0.420421 -5.399066 1.880790849211783e-38 1635415379
-0.459242 -0.387965 -5.425352 1.880790849211783e-38 1635415379
-0.482980 -0.172744 -5.705794 1.880790849211783e-38 1635415379
-0.459511 -0.360351 -5.428534 1.880790849211783e-38 1635415379
-0.459616 -0.325903 -5.429773 1.880790849211783e-38 1635415379
-0.437238 -1.040690 -5.165405 1.880790849211783e-38 1635415379
-0.445554 -1.005414 -5.263654 1.880790849211783e-38 1635415379
-0.445781 -0.963791 -5.266334 1.880790849211783e-38 1635415379
-0.443887 -0.912362 -5.243958 1.880790849211783e-38 1635415379
-0.443849 -1.237141 -5.243509 1.880790849211783e-38 1635415379
-0.423013 -1.148310 -4.997362 1.880790849211783e-38 1635415379
-0.433104 -0.848213 -5.116572 1.880790849211783e-38 1635415379
-0.431865 -0.800780 -5.101928 1.880790849211783e-38 1635415379
-0.438032 -1.139185 -5.174788 1.880790849211783e-38 1635415379
-0.441081 -1.108632 -5.210812 1.880790849211783e-38 1635415379
-0.462366 -0.660656 -5.272991 1.880790849211783e-38 1635415379
-0.467988 -0.641309 -5.337100 1.880790849211783e-38 1635415379
-0.454094 -0.591453 -5.178654 1.880790849211783e-38 1635415379
-0.462999 -0.566213 -5.280211 1.880790849211783e-38 1635415379
-0.466900 -0.801528 -5.324700 1.880790849211783e-38 1635415379
-0.462070 -0.758634 -5.269617 1.880790849211783e-38 1635415379
-0.466458 -0.546427 -5.319651 1.880790849211783e-38 1635415379
-0.466075 -0.511077 -5.315291 1.880790849211783e-38 1635415379
-0.462968 -0.730856 -5.279859 1.880790849211783e-38 1635415379
-0.456662 -0.690977 -5.207937 1.880790849211783e-38 1635415379
-0.482651 -0.294320 -5.504332 1.880790849211783e-38 1635415379
-0.472523 -0.261605 -5.388826 1.880790849211783e-38 1635415379
-0.466880 -0.472626 -5.324464 1.880790849211783e-38 1635415379
-0.462524 -0.444404 -5.274788 1.880790849211783e-38 1635415379
-0.480559 -0.228943 -5.480470 1.880790849211783e-38 1635415379
-0.481375 -0.203422 -5.489778 1.880790849211783e-38 1635415379
-0.482228 -0.428353 -5.499501 1.880790849211783e-38 1635415379
-0.479400 -0.391063 -5.467257 1.880790849211783e-38 1635415379
-0.514396 -0.177651 -5.866356 1.880790849211783e-38 1635415379
-0.475532 -0.360087 -5.423140 1.880790849211783e-38 1635415379
-0.475935 -0.325865 -5.427730 1.880790849211783e-38 1635415379
-0.452244 -1.039379 -5.157559 1.880790849211783e-38 1635415379
-0.470542 -1.025272 -5.366227 1.880790849211783e-38 1635415379
-0.457928 -0.955995 -5.222376 1.880790849211783e-38 1635415379
-0.457453 -0.907900 -5.216958 1.880790849211783e-38 1635415379
-0.459587 -1.236941 -5.241301 1.880790849211783e-38 1635415379
-0.442895 -1.160921 -5.050931 1.880790849211783e-38 1635415379
-0.448898 -0.848901 -5.119391 1.880790849211783e-38 1635415379
-0.452260 -0.809750 -5.157741 1.880790849211783e-38 1635415379
-0.449187 -1.128009 -5.122688 1.880790849211783e-38 1635415379
-0.452753 -1.098822 -5.163360 1.880790849211783e-38 1635415379
-0.482725 -0.666815 -5.320718 1.880790849211783e-38 1635415379
-0.480645 -0.636757 -5.297789 1.880790849211783e-38 1635415379
-0.468129 -0.589463 -5.159842 1.880790849211783e-38 1635415379
-0.484287 -0.572557 -5.337937 1.880790849211783e-38 1635415379
-0.480900 -0.798115 -5.300602 1.880790849211783e-38 1635415379
-0.478410 -0.759348 -5.273162 1.880790849211783e-38 1635415379
-0.486524 -0.550987 -5.362598 1.880790849211783e-38 1635415379
-0.486200 -0.515420 -5.359022 1.880790849211783e-38 1635415379
-0.471130 -0.719014 -5.192916 1.880790849211783e-38 1635415379
-0.474920 -0.694714 -5.234693 1.880790849211783e-38 1635415379
-0.493447 -0.290900 -5.438901 1.880790849211783e-38 1635415379
-0.492505 -0.263603 -5.428517 1.880790849211783e-38 1635415379
-0.476464 -0.466294 -5.251715 1.880790849211783e-38 1635415379
-0.475634 -0.441808 -5.242565 1.880790849211783e-38 1635415379
-0.497290 -0.229037 -5.481262 1.880790849211783e-38 1635415379
-0.492868 -0.201354 -5.432516 1.880790849211783e-38 1635415379
-0.489134 -0.420043 -5.391361 1.880790849211783e-38 1635415379
-0.500214 -0.394477 -5.513493 1.880790849211783e-38 1635415379
-0.543137 -0.181341 -5.986595 1.880790849211783e-38 1635415379
-0.491521 -0.359821 -5.417677 1.880790849211783e-38 1635415379
-0.494813 -0.327527 -5.453953 1.880790849211783e-38 1635415379
-0.463658 -1.030185 -5.110563 1.880790849211783e-38 1635415379
-0.481449 -1.014165 -5.306662 1.880790849211783e-38 1635415379
-0.477328 -0.963367 -5.261232 1.880790849211783e-38 1635415379
-0.476080 -0.913457 -5.247475 1.880790849211783e-38 1635415379
-0.465221 -1.210478 -5.127786 1.880790849211783e-38 1635415379
-0.454026 -1.150533 -5.004390 1.880790849211783e-38 1635415379
-0.462994 -0.846451 -5.103241 1.880790849211783e-38 1635415379
-0.467680 -0.809521 -5.154894 1.880790849211783e-38 1635415379
-0.461993 -1.121597 -5.092202 1.880790849211783e-38 1635415379
-0.471526 -1.106339 -5.197285 1.880790849211783e-38 1635415379
-0.497393 -0.664974 -5.304551 1.880790849211783e-38 1635415379
-0.496279 -0.636318 -5.292670 1.880790849211783e-38 1635415379
-0.483590 -0.589342 -5.157351 1.880790849211783e-38 1635415379
-0.499263 -0.571274 -5.324498 1.880790849211783e-38 1635415379
-0.495257 -0.795502 -5.281779 1.880790849211783e-38 1635415379
-0.493493 -0.758091 -5.262967 1.880790849211783e-38 1635415379
-0.507174 -0.555896 -5.408870 1.880790849211783e-38 1635415379
-0.498069 -0.511017 -5.311763 1.880790849211783e-38 1635415379
-0.494616 -0.730574 -5.274939 1.880790849211783e-38 1635415379
-0.487038 -0.689521 -5.194118 1.880790849211783e-38 1635415379
-0.511994 -0.292124 -5.460274 1.880790849211783e-38 1635415379
-0.507546 -0.262914 -5.412829 1.880790849211783e-38 1635415379
-0.495460 -0.469286 -5.283940 1.880790849211783e-38 1635415379
-0.493329 -0.443503 -5.261217 1.880790849211783e-38 1635415379
-0.515297 -0.229696 -5.495494 1.880790849211783e-38 1635415379
-0.508465 -0.201044 -5.422637 1.880790849211783e-38 1635415379
-0.507826 -0.422066 -5.415819 1.880790849211783e-38 1635415379
-0.505275 -0.385649 -5.388614 1.880790849211783e-38 1635415379
-0.503033 -0.356402 -5.364703 1.880790849211783e-38 1635415379
-0.517377 -0.331447 -5.517681 1.880790849211783e-38 1635415379
-0.477851 -1.027564 -5.096143 1.880790849211783e-38 1635415379
-0.493243 -1.005584 -5.260300 1.880790849211783e-38 1635415379
-0.490185 -0.957490 -5.227682 1.880790849211783e-38 1635415379
-0.489175 -0.908388 -5.216907 1.880790849211783e-38 1635415379
-0.467568 -1.177447 -4.986474 1.880790849211783e-38 1635415379
-0.470996 -1.155143 -5.023043 1.880790849211783e-38 1635415379
-0.483613 -0.855703 -5.157591 1.880790849211783e-38 1635415379
-0.489029 -0.819244 -5.215358 1.880790849211783e-38 1635415379
-0.474919 -1.115888 -5.064872 1.880790849211783e-38 1635415379
-0.486038 -1.103703 -5.183459 1.880790849211783e-38 1635415379
-0.509792 -0.660316 -5.265878 1.880790849211783e-38 1635415379
-0.508886 -0.632153 -5.256513 1.880790849211783e-38 1635415379
-0.500461 -0.590899 -5.169487 1.880790849211783e-38 1635415379
-0.517072 -0.573217 -5.341070 1.880790849211783e-38 1635415379
-0.511150 -0.795447 -5.279896 1.880790849211783e-38 1635415379
-0.512887 -0.763334 -5.297844 1.880790849211783e-38 1635415379
-0.518282 -0.550370 -5.353567 1.880790849211783e-38 1635415379
-0.514076 -0.511007 -5.310128 1.880790849211783e-38 1635415379
-0.510369 -0.730354 -5.271834 1.880790849211783e-38 1635415379
-0.506114 -0.694203 -5.227883 1.880790849211783e-38 1635415379
-0.532657 -0.294444 -5.502056 1.880790849211783e-38 1635415379
-0.528355 -0.265166 -5.457621 1.880790849211783e-38 1635415379
-0.514640 -0.472264 -5.315947 1.880790849211783e-38 1635415379
-0.512635 -0.446500 -5.295238 1.880790849211783e-38 1635415379
-0.534130 -0.230672 -5.517271 1.880790849211783e-38 1635415379
-0.532859 -0.204125 -5.504144 1.880790849211783e-38 1635415379
-0.525675 -0.423288 -5.429934 1.880790849211783e-38 1635415379
-0.527030 -0.389720 -5.443927 1.880790849211783e-38 1635415379
-0.525502 -0.360720 -5.428148 1.880790849211783e-38 1635415379
-0.524537 -0.325563 -5.418185 1.880790849211783e-38 1635415379
-0.481971 -1.004131 -4.978494 1.880790849211783e-38 1635415379
-0.506760 -1.000951 -5.234559 1.880790849211783e-38 1635415379
-0.507314 -0.960072 -5.240274 1.880790849211783e-38 1635415379
-0.503199 -0.905316 -5.197768 1.880790849211783e-38 1635415379
-0.485350 -1.184145 -5.013402 1.880790849211783e-38 1635415379
-0.476786 -1.132907 -4.924936 1.880790849211783e-38 1635415379
-0.500188 -0.857455 -5.166667 1.880790849211783e-38 1635415379
-0.504185 -0.818316 -5.207951 1.880790849211783e-38 1635415379
-0.489540 -1.114403 -5.056677 1.880790849211783e-38 1635415379
-0.498148 -1.095957 -5.145602 1.880790849211783e-38 1635415379
-0.526606 -0.661489 -5.273670 1.880790849211783e-38 1635415379
-0.537927 -0.648043 -5.387048 1.880790849211783e-38 1635415379
-0.518833 -0.594086 -5.195826 1.880790849211783e-38 1635415379
-0.530533 -0.570374 -5.313001 1.880790849211783e-38 1635415379
-0.526414 -0.794454 -5.271744 1.880790849211783e-38 1635415379
-0.524639 -0.757238 -5.253975 1.880790849211783e-38 1635415379
-0.538684 -0.554755 -5.394624 1.880790849211783e-38 1635415379
-0.534034 -0.514809 -5.348053 1.880790849211783e-38 1635415379
-0.521514 -0.723759 -5.222678 1.880790849211783e-38 1635415379
-0.523084 -0.695805 -5.238397 1.880790849211783e-38 1635415379
-0.547235 -0.293365 -5.480260 1.880790849211783e-38 1635415379
-0.544279 -0.264906 -5.450653 1.880790849211783e-38 1635415379
-0.531114 -0.472659 -5.318810 1.880790849211783e-38 1635415379
-0.520552 -0.439699 -5.213044 1.880790849211783e-38 1635415379
-0.546535 -0.228900 -5.473250 1.880790849211783e-38 1635415379
-0.559723 -0.207938 -5.605316 1.880790849211783e-38 1635415379
-0.543501 -0.424422 -5.442866 1.880790849211783e-38 1635415379
-0.540498 -0.387606 -5.412792 1.880790849211783e-38 1635415379
-0.540913 -0.360083 -5.416951 1.880790849211783e-38 1635415379
-0.544573 -0.327789 -5.453601 1.880790849211783e-38 1635415379
-0.500082 -1.010390 -5.008042 1.880790849211783e-38 1635415379
-0.521545 -0.999035 -5.222988 1.880790849211783e-38 1635415379
-0.518368 -0.951358 -5.191170 1.880790849211783e-38 1635415379
-0.515249 -0.898992 -5.159933 1.880790849211783e-38 1635415379
-0.494582 -1.170218 -4.952966 1.880790849211783e-38 1635415379
-0.495717 -1.142308 -4.964331 1.880790849211783e-38 1635415379
-0.506788 -0.842526 -5.075200 1.880790849211783e-38 1635415379
-0.519961 -0.818429 -5.207128 1.880790849211783e-38 1635415379
-0.501146 -1.106362 -5.018700 1.880790849211783e-38 1635415379
-0.510032 -1.088205 -5.107689 1.880790849211783e-38 1635415379
-0.543175 -0.662302 -5.278542 1.880790849211783e-38 1635415379
-0.539897 -0.631351 -5.246687 1.880790849211783e-38 1635415379
-0.529270 -0.588273 -5.143412 1.880790849211783e-38 1635415379
-0.551606 -0.575646 -5.360473 1.880790849211783e-38 1635415379
-0.543395 -0.796044 -5.280675 1.880790849211783e-38 1635415379
-0.539820 -0.756311 -5.245940 1.880790849211783e-38 1635415379
-0.553476 -0.553281 -5.378643 1.880790849211783e-38 1635415379
-0.547974 -0.512764 -5.325178 1.880790849211783e-38 1635415379
-0.544645 -0.733705 -5.292828 1.880790849211783e-38 1635415379
-0.537899 -0.694540 -5.227270 1.880790849211783e-38 1635415379
-0.568317 -0.295736 -5.522875 1.880790849211783e-38 1635415379
-0.558464 -0.263843 -5.427118 1.880790849211783e-38 1635415379
-0.540369 -0.466800 -5.251276 1.880790849211783e-38 1635415379
-0.543916 -0.445967 -5.285741 1.880790849211783e-38 1635415379
-0.567921 -0.230885 -5.519020 1.880790849211783e-38 1635415379
-0.594811 -0.214497 -5.780340 1.880790849211783e-38 1635415379
-0.554085 -0.420004 -5.384562 1.880790849211783e-38 1635415379
-0.564760 -0.393133 -5.488307 1.880790849211783e-38 1635415379
-0.554566 -0.358351 -5.389242 1.880790849211783e-38 1635415379
-0.562235 -0.328500 -5.463762 1.880790849211783e-38 1635415379
-0.515343 -1.010706 -5.008078 1.880790849211783e-38 1635415379
-0.531731 -0.988691 -5.167329 1.880790849211783e-38 1635415379
-0.533493 -0.950417 -5.184450 1.880790849211783e-38 1635415379
-0.526772 -0.892158 -5.119137 1.880790849211783e-38 1635415379
-0.516498 -1.186253 -5.019301 1.880790849211783e-38 1635415379
-0.507985 -1.136267 -4.936567 1.880790849211783e-38 1635415379
-0.527617 -0.851443 -5.127349 1.880790849211783e-38 1635415379
-0.537558 -0.821325 -5.223953 1.880790849211783e-38 1635415379
-0.512750 -1.098800 -4.982875 1.880790849211783e-38 1635415379
-0.523982 -1.085199 -5.092026 1.880790849211783e-38 1635415379
-0.563638 -0.667688 -5.319786 1.880790849211783e-38 1635415379
-0.558923 -0.634992 -5.275275 1.880790849211783e-38 1635415379
-0.552291 -0.596384 -5.212688 1.880790849211783e-38 1635415379
-0.568049 -0.575929 -5.361415 1.880790849211783e-38 1635415379
-0.555880 -0.791150 -5.246558 1.880790849211783e-38 1635415379
-0.557784 -0.759231 -5.264534 1.880790849211783e-38 1635415379
-0.569606 -0.553195 -5.376111 1.880790849211783e-38 1635415379
-0.565582 -0.514173 -5.338134 1.880790849211783e-38 1635415379
-0.555270 -0.726721 -5.240801 1.880790849211783e-38 1635415379
-0.554629 -0.695753 -5.234752 1.880790849211783e-38 1635415379
-0.587084 -0.296804 -5.541075 1.880790849211783e-38 1635415379
-0.586210 -0.269067 -5.532822 1.880790849211783e-38 1635415379
-0.559500 -0.469565 -5.280722 1.880790849211783e-38 1635415379
-0.557988 -0.444480 -5.266455 1.880790849211783e-38 1635415379
-0.595272 -0.235114 -5.618354 1.880790849211783e-38 1635415379
-0.575547 -0.423852 -5.432186 1.880790849211783e-38 1635415379
-0.581722 -0.393412 -5.490468 1.880790849211783e-38 1635415379
-0.578787 -0.363354 -5.462762 1.880790849211783e-38 1635415379
-0.576414 -0.327196 -5.440370 1.880790849211783e-38 1635415379
-0.518427 -0.987807 -4.893071 1.880790849211783e-38 1635415379
-0.546143 -0.986578 -5.154661 1.880790849211783e-38 1635415379
-0.546272 -0.945477 -5.155879 1.880790849211783e-38 1635415379
-0.552014 -0.908291 -5.210067 1.880790849211783e-38 1635415379
-0.521437 -1.163500 -4.921478 1.880790849211783e-38 1635415379
-0.524608 -1.140041 -4.951405 1.880790849211783e-38 1635415379
-0.543096 -0.851471 -5.125900 1.880790849211783e-38 1635415379
-0.550318 -0.816883 -5.194067 1.880790849211783e-38 1635415379
-0.529282 -1.101934 -4.995516 1.880790849211783e-38 1635415379
-0.531955 -1.070345 -5.020746 1.880790849211783e-38 1635415379
-0.580906 -0.669099 -5.329302 1.880790849211783e-38 1635415379
-0.577996 -0.638488 -5.302607 1.880790849211783e-38 1635415379
-0.570729 -0.599238 -5.235941 1.880790849211783e-38 1635415379
-0.577648 -0.569454 -5.299420 1.880790849211783e-38 1635415379
-0.574548 -0.795089 -5.270975 1.880790849211783e-38 1635415379
-0.579709 -0.767237 -5.318327 1.880790849211783e-38 1635415379
-0.583366 -0.550879 -5.351872 1.880790849211783e-38 1635415379
-0.580156 -0.512826 -5.322423 1.880790849211783e-38 1635415379
-0.580743 -0.739026 -5.327811 1.880790849211783e-38 1635415379
-0.567356 -0.692022 -5.204992 1.880790849211783e-38 1635415379
-0.609294 -0.299508 -5.589740 1.880790849211783e-38 1635415379
-0.603188 -0.269197 -5.533720 1.880790849211783e-38 1635415379
-0.578886 -0.472391 -5.310773 1.880790849211783e-38 1635415379
-0.578336 -0.447940 -5.305733 1.880790849211783e-38 1635415379
-0.622570 -0.239091 -5.711535 1.880790849211783e-38 1635415379
-0.597956 -0.428168 -5.485726 1.880790849211783e-38 1635415379
-0.603350 -0.396747 -5.535214 1.880790849211783e-38 1635415379
-0.599635 -0.366024 -5.501130 1.880790849211783e-38 1635415379
-0.600100 -0.331215 -5.505397 1.880790849211783e-38 1635415379
-0.533570 -0.988525 -4.895038 1.880790849211783e-38 1635415379
-0.559340 -0.982456 -5.131461 1.880790849211783e-38 1635415379
-0.553299 -0.931137 -5.076036 1.880790849211783e-38 1635415379
-0.558892 -0.894161 -5.127352 1.880790849211783e-38 1635415379
-0.541987 -1.175887 -4.972261 1.880790849211783e-38 1635415379
-0.536868 -1.134396 -4.925292 1.880790849211783e-38 1635415379
-0.549931 -0.838327 -5.045141 1.880790849211783e-38 1635415379
-0.561032 -0.809740 -5.146979 1.880790849211783e-38 1635415379
-0.542057 -1.097302 -4.972903 1.880790849211783e-38 1635415379
-0.545815 -1.067841 -5.007375 1.880790849211783e-38 1635415379
-0.598801 -0.671146 -5.343828 1.880790849211783e-38 1635415379
-0.596749 -0.641461 -5.325516 1.880790849211783e-38 1635415379
-0.579598 -0.592170 -5.172454 1.880790849211783e-38 1635415379
-0.604694 -0.580069 -5.396410 1.880790849211783e-38 1635415379
-0.594446 -0.800483 -5.304962 1.880790849211783e-38 1635415379
-0.596841 -0.768649 -5.326334 1.880790849211783e-38 1635415379
-0.602737 -0.553851 -5.378946 1.880790849211783e-38 1635415379
-0.591108 -0.508443 -5.275171 1.880790849211783e-38 1635415379
-0.595949 -0.737963 -5.318372 1.880790849211783e-38 1635415379
-0.592110 -0.702776 -5.284116 1.880790849211783e-38 1635415379
-0.626686 -0.299766 -5.592679 1.880790849211783e-38 1635415379
-0.629580 -0.273413 -5.618506 1.880790849211783e-38 1635415379
-0.595504 -0.472871 -5.314402 1.880790849211783e-38 1635415379
-0.592926 -0.446879 -5.291395 1.880790849211783e-38 1635415379
-0.646540 -0.241613 -5.769859 1.880790849211783e-38 1635415379
-0.616661 -0.429676 -5.503214 1.880790849211783e-38 1635415379
-0.624884 -0.399846 -5.576590 1.880790849211783e-38 1635415379
-0.616272 -0.366054 -5.499743 1.880790849211783e-38 1635415379
-0.623047 -0.334623 -5.560204 1.880790849211783e-38 1635415379
-0.553167 -0.997245 -4.936576 1.880790849211783e-38 1635415379
-0.570997 -0.975932 -5.095691 1.880790849211783e-38 1635415379
-0.571191 -0.935373 -5.097430 1.880790849211783e-38 1635415379
-0.572297 -0.890959 -5.107293 1.880790849211783e-38 1635415379
-0.551761 -1.164868 -4.924027 1.880790849211783e-38 1635415379
-0.551383 -1.133705 -4.920652 1.880790849211783e-38 1635415379
-0.561625 -0.833107 -5.012056 1.880790849211783e-38 1635415379
-0.570014 -0.800559 -5.086923 1.880790849211783e-38 1635415379
-0.559166 -1.101466 -4.990110 1.880790849211783e-38 1635415379
-0.558417 -1.063089 -4.983431 1.880790849211783e-38 1635415379
-0.619624 -0.676285 -5.382902 1.880790849211783e-38 1635415379
-0.611104 -0.639676 -5.308883 1.880790849211783e-38 1635415379
-0.598378 -0.595336 -5.198332 1.880790849211783e-38 1635415379
-0.616571 -0.575963 -5.356380 1.880790849211783e-38 1635415379
-0.607448 -0.796556 -5.277126 1.880790849211783e-38 1635415379
-0.603639 -0.757031 -5.244033 1.880790849211783e-38 1635415379
-0.624714 -0.559002 -5.427115 1.880790849211783e-38 1635415379
-0.616904 -0.516726 -5.359273 1.880790849211783e-38 1635415379
-0.615822 -0.742588 -5.349874 1.880790849211783e-38 1635415379
-0.606449 -0.700931 -5.268443 1.880790849211783e-38 1635415379
-0.652131 -0.303762 -5.665301 1.880790849211783e-38 1635415379
-0.647308 -0.273745 -5.623402 1.880790849211783e-38 1635415379
-0.613761 -0.474596 -5.331963 1.880790849211783e-38 1635415379
-0.611399 -0.448726 -5.311444 1.880790849211783e-38 1635415379
-0.635654 -0.431303 -5.522156 1.880790849211783e-38 1635415379
-0.643381 -0.400894 -5.589287 1.880790849211783e-38 1635415379
-0.630268 -0.364557 -5.475369 1.880790849211783e-38 1635415379
-0.640549 -0.335008 -5.564683 1.880790849211783e-38 1635415379
-0.562683 -0.987818 -4.888231 1.880790849211783e-38 1635415379
-0.581730 -0.968222 -5.053703 1.880790849211783e-38 1635415379
-0.590945 -0.942362 -5.133758 1.880790849211783e-38 1635415379
-0.588319 -0.891902 -5.110944 1.880790849211783e-38 1635415379
-0.570083 -1.172011 -4.952521 1.880790849211783e-38 1635415379
-0.566684 -1.134634 -4.922996 1.880790849211783e-38 1635415379
-0.581234 -0.839601 -5.049393 1.880790849211783e-38 1635415379
-0.589494 -0.806222 -5.121153 1.880790849211783e-38 1635415379
-0.568911 -1.091294 -4.942335 1.880790849211783e-38 1635415379
-0.575286 -1.066502 -4.997716 1.880790849211783e-38 1635415379
-0.631998 -0.672181 -5.348355 1.880790849211783e-38 1635415379
-0.628149 -0.640733 -5.315784 1.880790849211783e-38 1635415379
-0.616461 -0.597670 -5.216875 1.880790849211783e-38 1635415379
-0.628278 -0.571917 -5.316876 1.880790849211783e-38 1635415379
-0.621591 -0.794293 -5.260286 1.880790849211783e-38 1635415379
-0.616223 -0.753085 -5.214865 1.880790849211783e-38 1635415379
-0.643436 -0.561057 -5.445152 1.880790849211783e-38 1635415379
-0.629662 -0.513948 -5.328589 1.880790849211783e-38 1635415379
-0.630015 -0.740309 -5.331574 1.880790849211783e-38 1635415379
-0.621424 -0.699905 -5.258880 1.880790849211783e-38 1635415379
-0.672552 -0.305277 -5.691549 1.880790849211783e-38 1635415379
-0.662982 -0.273216 -5.610567 1.880790849211783e-38 1635415379
-0.635365 -0.478760 -5.376854 1.880790849211783e-38 1635415379
-0.637719 -0.456095 -5.396776 1.880790849211783e-38 1635415379
-0.660712 -0.436861 -5.591352 1.880790849211783e-38 1635415379
-0.669315 -0.406407 -5.664163 1.880790849211783e-38 1635415379
-0.658417 -0.371117 -5.571935 1.880790849211783e-38 1635415379
-0.663270 -0.338036 -5.613003 1.880790849211783e-38 1635415379
-0.575680 -0.984835 -4.871761 1.880790849211783e-38 1635415379
-0.597241 -0.968662 -5.054222 1.880790849211783e-38 1635415379
-0.599902 -0.932225 -5.076746 1.880790849211783e-38 1635415379
-0.597120 -0.882135 -5.053200 1.880790849211783e-38 1635415379
-0.581813 -1.165591 -4.923662 1.880790849211783e-38 1635415379
-0.578400 -1.128528 -4.894783 1.880790849211783e-38 1635415379
-0.587598 -0.827126 -4.972616 1.880790849211783e-38 1635415379
-0.604551 -0.805707 -5.116084 1.880790849211783e-38 1635415379
-0.584185 -1.091988 -4.943737 1.880790849211783e-38 1635415379
-0.583593 -1.054284 -4.938727 1.880790849211783e-38 1635415379
-0.649872 -0.673993 -5.360829 1.880790849211783e-38 1635415379
-0.649477 -0.646004 -5.357574 1.880790849211783e-38 1635415379
-0.635929 -0.601203 -5.245818 1.880790849211783e-38 1635415379
-0.652142 -0.578868 -5.379557 1.880790849211783e-38 1635415379
-0.632424 -0.788027 -5.216907 1.880790849211783e-38 1635415379
-0.627427 -0.747697 -5.175684 1.880790849211783e-38 1635415379
-0.651833 -0.554236 -5.377009 1.880790849211783e-38 1635415379
-0.650950 -0.518103 -5.369729 1.880790849211783e-38 1635415379
-0.654156 -0.749549 -5.396173 1.880790849211783e-38 1635415379
-0.646597 -0.710135 -5.333816 1.880790849211783e-38 1635415379
-0.699318 -0.309528 -5.768721 1.880790849211783e-38 1635415379
-0.687512 -0.276275 -5.671328 1.880790849211783e-38 1635415379
-0.656261 -0.482200 -5.413536 1.880790849211783e-38 1635415379
-0.654741 -0.456617 -5.401001 1.880790849211783e-38 1635415379
-0.676272 -0.436023 -5.578609 1.880790849211783e-38 1635415379
-0.685992 -0.406168 -5.658789 1.880790849211783e-38 1635415379
-0.676202 -0.371657 -5.578029 1.880790849211783e-38 1635415379
-0.690766 -0.343289 -5.698169 1.880790849211783e-38 1635415379
-0.590548 -0.985131 -4.871463 1.880790849211783e-38 1635415379
-0.608232 -0.961941 -5.017340 1.880790849211783e-38 1635415379
-0.602921 -0.913601 -4.973529 1.880790849211783e-38 1635415379
-0.615969 -0.887338 -5.081166 1.880790849211783e-38 1635415379
-0.599545 -1.171227 -4.945684 1.880790849211783e-38 1635415379
-0.590865 -1.124162 -4.874083 1.880790849211783e-38 1635415379
-0.607964 -0.834499 -5.015133 1.880790849211783e-38 1635415379
-0.614689 -0.798834 -5.070609 1.880790849211783e-38 1635415379
-0.589984 -1.075384 -4.866810 1.880790849211783e-38 1635415379
-0.601905 -1.060307 -4.965147 1.880790849211783e-38 1635415379
-0.666107 -0.674065 -5.359424 1.880790849211783e-38 1635415379
-0.670131 -0.650370 -5.391794 1.880790849211783e-38 1635415379
-0.652466 -0.601867 -5.249664 1.880790849211783e-38 1635415379
-0.670892 -0.581059 -5.397922 1.880790849211783e-38 1635415379
-0.639421 -0.777409 -5.144706 1.880790849211783e-38 1635415379
-0.651893 -0.757999 -5.245057 1.880790849211783e-38 1635415379
-0.675000 -0.560005 -5.430972 1.880790849211783e-38 1635415379
-0.670343 -0.520590 -5.393503 1.880790849211783e-38 1635415379
-0.671319 -0.750546 -5.401355 1.880790849211783e-38 1635415379
-0.662785 -0.710248 -5.332689 1.880790849211783e-38 1635415379
-0.722047 -0.311832 -5.809509 1.880790849211783e-38 1635415379
-0.711648 -0.279034 -5.725838 1.880790849211783e-38 1635415379
-0.675987 -0.484640 -5.438915 1.880790849211783e-38 1635415379
-0.670003 -0.455921 -5.390769 1.880790849211783e-38 1635415379
-0.698087 -0.439165 -5.616728 1.880790849211783e-38 1635415379
-0.703480 -0.406414 -5.660120 1.880790849211783e-38 1635415379
-0.700280 -0.375550 -5.634374 1.880790849211783e-38 1635415379
-0.704387 -0.341563 -5.667421 1.880790849211783e-38 1635415379
-0.603694 -0.982621 -4.857251 1.880790849211783e-38 1635415379
-0.622383 -0.960434 -5.007627 1.880790849211783e-38 1635415379
-0.626929 -0.926925 -5.044196 1.880790849211783e-38 1635415379
-0.622752 -0.875337 -5.010590 1.880790849211783e-38 1635415379
-0.619360 -1.180572 -4.983298 1.880790849211783e-38 1635415379
-0.606843 -1.126540 -4.882586 1.880790849211783e-38 1635415379
-0.606914 -0.812840 -4.883160 1.880790849211783e-38 1635415379
-0.625993 -0.793780 -5.036668 1.880790849211783e-38 1635415379
-0.616517 -1.096476 -4.960427 1.880790849211783e-38 1635415379
-0.618347 -1.062836 -4.975146 1.880790849211783e-38 1635415379
-0.685950 -0.677702 -5.386298 1.880790849211783e-38 1635415379
-0.690452 -0.654220 -5.421652 1.880790849211783e-38 1635415379
-0.676806 -0.609531 -5.314501 1.880790849211783e-38 1635415379
-0.686074 -0.580133 -5.387274 1.880790849211783e-38 1635415379
-0.657335 -0.780258 -5.161603 1.880790849211783e-38 1635415379
-0.653499 -0.741868 -5.131486 1.880790849211783e-38 1635415379
-0.699451 -0.566546 -5.492317 1.880790849211783e-38 1635415379
-0.694005 -0.526199 -5.449550 1.880790849211783e-38 1635415379
-0.690913 -0.754156 -5.425272 1.880790849211783e-38 1635415379
-0.680486 -0.711944 -5.343398 1.880790849211783e-38 1635415379
-0.704929 -0.493419 -5.535333 1.880790849211783e-38 1635415379
-0.694383 -0.461318 -5.452521 1.880790849211783e-38 1635415379
-0.713986 -0.438528 -5.606452 1.880790849211783e-38 1635415379
-0.723907 -0.408309 -5.684350 1.880790849211783e-38 1635415379
-0.717399 -0.375618 -5.633249 1.880790849211783e-38 1635415379
-0.739801 -0.350237 -5.809154 1.880790849211783e-38 1635415379
-0.618181 -0.982367 -4.854155 1.880790849211783e-38 1635415379
-0.632923 -0.953563 -4.969912 1.880790849211783e-38 1635415379
-0.641832 -0.926483 -5.039875 1.880790849211783e-38 1635415379
-0.628920 -0.863067 -4.938480 1.880790849211783e-38 1635415379
-0.632763 -1.177550 -4.968656 1.880790849211783e-38 1635415379
-0.615961 -1.116382 -4.836725 1.880790849211783e-38 1635415379
-0.622713 -0.814245 -4.889743 1.880790849211783e-38 1635415379
-0.630128 -0.780098 -4.947972 1.880790849211783e-38 1635415379
-0.627300 -1.089226 -4.925761 1.880790849211783e-38 1635415379
-0.629433 -1.056265 -4.942510 1.880790849211783e-38 1635415379
-0.712424 -0.687578 -5.462666 1.880790849211783e-38 1635415379
-0.698030 -0.646102 -5.352293 1.880790849211783e-38 1635415379
-0.692269 -0.609036 -5.308121 1.880790849211783e-38 1635415379
-0.707797 -0.584658 -5.427187 1.880790849211783e-38 1635415379
-0.667684 -0.774211 -5.119608 1.880790849211783e-38 1635415379
-0.666517 -0.739145 -5.110663 1.880790849211783e-38 1635415379
-0.716103 -0.566617 -5.490872 1.880790849211783e-38 1635415379
-0.717160 -0.531178 -5.498980 1.880790849211783e-38 1635415379
-0.705919 -0.752713 -5.412786 1.880790849211783e-38 1635415379
-0.706965 -0.722539 -5.420805 1.880790849211783e-38 1635415379
-0.715651 -0.489337 -5.487405 1.880790849211783e-38 1635415379
-0.712883 -0.462654 -5.466182 1.880790849211783e-38 1635415379
-0.744653 -0.446784 -5.709788 1.880790849211783e-38 1635415379
-0.758971 -0.418184 -5.819571 1.880790849211783e-38 1635415379
-0.755424 -0.386378 -5.792377 1.880790849211783e-38 1635415379
-0.630341 -0.978521 -4.833273 1.880790849211783e-38 1635415379
-0.655469 -0.964690 -5.025951 1.880790849211783e-38 1635415379
-0.648989 -0.915144 -4.976259 1.880790849211783e-38 1635415379
-0.642876 -0.861813 -4.929393 1.880790849211783e-38 1635415379
-0.647455 -1.177021 -4.964496 1.880790849211783e-38 1635415379
-0.637202 -1.128167 -4.885883 1.880790849211783e-38 1635415379
-0.639747 -0.817169 -4.905396 1.880790849211783e-38 1635415379
-0.654185 -0.791146 -5.016100 1.880790849211783e-38 1635415379
-0.640819 -1.086963 -4.913617 1.880790849211783e-38 1635415379
-0.647582 -1.061584 -4.965471 1.880790849211783e-38 1635415379
-0.724006 -0.682965 -5.423853 1.880790849211783e-38 1635415379
-0.723765 -0.654783 -5.422050 1.880790849211783e-38 1635415379
-0.709662 -0.610229 -5.316399 1.880790849211783e-38 1635415379
-0.726430 -0.586489 -5.442016 1.880790849211783e-38 1635415379
-0.676749 -0.766988 -5.069830 1.880790849211783e-38 1635415379
-0.679315 -0.736313 -5.089055 1.880790849211783e-38 1635415379
-0.740200 -0.572448 -5.545172 1.880790849211783e-38 1635415379
-0.736623 -0.533265 -5.518379 1.880790849211783e-38 1635415379
-0.732887 -0.763808 -5.490389 1.880790849211783e-38 1635415379
-0.713497 -0.712735 -5.345130 1.880790849211783e-38 1635415379
-0.738839 -0.493775 -5.534974 1.880790849211783e-38 1635415379
-0.746267 -0.473375 -5.590621 1.880790849211783e-38 1635415379
-0.772850 -0.453223 -5.789767 1.880790849211783e-38 1635415379
-0.791304 -0.426146 -5.928014 1.880790849211783e-38 1635415379
-0.642991 -0.975601 -4.816933 1.880790849211783e-38 1635415379
-0.666569 -0.958856 -4.993571 1.880790849211783e-38 1635415379
-0.666344 -0.918383 -4.991885 1.880790849211783e-38 1635415379
-0.664712 -0.870948 -4.979657 1.880790849211783e-38 1635415379
-0.656704 -1.136420 -4.919667 1.880790849211783e-38 1635415379
-0.652325 -0.814405 -4.886861 1.880790849211783e-38 1635415379
-0.672518 -0.794938 -5.038133 1.880790849211783e-38 1635415379
-0.657042 -1.089295 -4.922198 1.880790849211783e-38 1635415379
-0.663972 -1.063855 -4.974111 1.880790849211783e-38 1635415379
-0.739766 -0.682417 -5.417300 1.880790849211783e-38 1635415379
-0.744169 -0.658371 -5.449542 1.880790849211783e-38 1635415379
-0.734577 -0.617701 -5.379305 1.880790849211783e-38 1635415379
-0.747821 -0.590423 -5.476288 1.880790849211783e-38 1635415379
-0.689006 -0.763631 -5.045583 1.880790849211783e-38 1635415379
-0.690552 -0.731959 -5.056906 1.880790849211783e-38 1635415379
-0.760112 -0.574863 -5.566294 1.880790849211783e-38 1635415379
-0.755068 -0.534543 -5.529360 1.880790849211783e-38 1635415379
-0.695159 -0.708486 -5.090645 1.880790849211783e-38 1635415379
-0.747112 -0.729829 -5.471095 1.880790849211783e-38 1635415379
-0.762763 -0.498504 -5.585705 1.880790849211783e-38 1635415379
-0.773344 -0.479715 -5.663193 1.880790849211783e-38 1635415379
-0.806718 -0.462634 -5.907588 1.880790849211783e-38 1635415379
-0.657581 -0.975701 -4.815464 1.880790849211783e-38 1635415379
-0.676252 -0.951297 -4.952187 1.880790849211783e-38 1635415379
-0.674843 -0.909552 -4.941868 1.880790849211783e-38 1635415379
-0.677635 -0.868268 -4.962314 1.880790849211783e-38 1635415379
-0.671260 -1.135950 -4.915632 1.880790849211783e-38 1635415379
-0.666322 -0.813504 -4.879468 1.880790849211783e-38 1635415379
-0.680728 -0.786869 -4.984967 1.880790849211783e-38 1635415379
-0.669802 -1.085922 -4.904956 1.880790849211783e-38 1635415379
-0.675039 -1.057696 -4.943302 1.880790849211783e-38 1635415379
-0.773401 -0.698031 -5.538942 1.880790849211783e-38 1635415379
-0.761606 -0.659241 -5.454468 1.880790849211783e-38 1635415379
-0.746528 -0.614188 -5.346483 1.880790849211783e-38 1635415379
-0.766655 -0.592216 -5.490627 1.880790849211783e-38 1635415379
-0.718040 -0.778616 -5.142455 1.880790849211783e-38 1635415379
-0.710986 -0.737337 -5.091942 1.880790849211783e-38 1635415379
-0.774155 -0.572834 -5.544339 1.880790849211783e-38 1635415379
-0.793219 -0.549420 -5.680874 1.880790849211783e-38 1635415379
-0.712881 -0.710850 -5.105511 1.880790849211783e-38 1635415379
-0.758403 -0.724853 -5.431530 1.880790849211783e-38 1635415379
-0.805079 -0.514792 -5.765811 1.880790849211783e-38 1635415379
-0.813158 -0.493515 -5.823676 1.880790849211783e-38 1635415379
-0.671781 -0.975235 -4.811158 1.880790849211783e-38 1635415379
-0.683980 -0.941381 -4.898526 1.880790849211783e-38 1635415379
-0.686782 -0.905645 -4.918596 1.880790849211783e-38 1635415379
-0.687961 -0.862455 -4.927040 1.880790849211783e-38 1635415379
-0.677131 -1.121130 -4.849479 1.880790849211783e-38 1635415379
-0.676046 -0.807545 -4.841708 1.880790849211783e-38 1635415379
-0.690355 -0.780757 -4.944186 1.880790849211783e-38 1635415379
-0.679536 -1.077900 -4.866698 1.880790849211783e-38 1635415379
-0.683141 -1.047266 -4.892519 1.880790849211783e-38 1635415379
-0.784939 -0.693469 -5.500401 1.880790849211783e-38 1635415379
-0.784130 -0.664390 -5.494729 1.880790849211783e-38 1635415379
-0.768125 -0.618597 -5.382575 1.880790849211783e-38 1635415379
-0.792612 -0.599324 -5.554168 1.880790849211783e-38 1635415379
-0.715962 -0.759952 -5.017047 1.880790849211783e-38 1635415379
-0.715395 -0.726226 -5.013073 1.880790849211783e-38 1635415379
-0.816420 -0.591337 -5.720996 1.880790849211783e-38 1635415379
-0.722195 -0.704915 -5.060723 1.880790849211783e-38 1635415379
-0.780896 -0.730574 -5.472072 1.880790849211783e-38 1635415379
-0.669324 -0.951129 -4.690239 1.880790849211783e-38 1635415379
-0.702676 -0.946669 -4.923949 1.880790849211783e-38 1635415379
-0.706679 -0.912183 -4.951995 1.880790849211783e-38 1635415379
-0.706948 -0.867524 -4.953887 1.880790849211783e-38 1635415379
-0.694575 -1.125701 -4.867179 1.880790849211783e-38 1635415379
-0.690642 -0.807541 -4.839620 1.880790849211783e-38 1635415379
-0.708489 -0.784327 -4.964680 1.880790849211783e-38 1635415379
-0.693665 -1.077054 -4.860806 1.880790849211783e-38 1635415379
-0.701581 -1.052799 -4.916275 1.880790849211783e-38 1635415379
-0.819119 -0.708692 -5.618702 1.880790849211783e-38 1635415379
-0.804390 -0.667454 -5.517671 1.880790849211783e-38 1635415379
-0.787197 -0.620840 -5.399738 1.880790849211783e-38 1635415379
-0.841584 -0.623187 -5.772802 1.880790849211783e-38 1635415379
-0.733230 -0.762178 -5.029557 1.880790849211783e-38 1635415379
-0.735042 -0.730732 -5.041982 1.880790849211783e-38 1635415379
-0.732045 -0.699745 -5.021426 1.880790849211783e-38 1635415379
-0.811098 -0.743129 -5.563688 1.880790849211783e-38 1635415379
-0.703116 -0.978475 -4.822991 1.880790849211783e-38 1635415379
-0.714114 -0.942173 -4.898429 1.880790849211783e-38 1635415379
-0.714200 -0.902818 -4.899021 1.880790849211783e-38 1635415379
-0.719695 -0.864892 -4.936713 1.880790849211783e-38 1635415379
-0.713736 -1.132822 -4.895836 1.880790849211783e-38 1635415379
-0.706946 -0.809502 -4.849261 1.880790849211783e-38 1635415379
-0.711101 -0.770931 -4.877758 1.880790849211783e-38 1635415379
-0.706563 -1.074380 -4.846631 1.880790849211783e-38 1635415379
-0.712031 -1.046373 -4.884140 1.880790849211783e-38 1635415379
-0.831272 -0.704633 -5.584037 1.880790849211783e-38 1635415379
-0.829811 -0.674594 -5.574219 1.880790849211783e-38 1635415379
-0.836150 -0.646084 -5.616807 1.880790849211783e-38 1635415379
-0.750200 -0.764015 -5.039439 1.880790849211783e-38 1635415379
-0.749529 -0.730034 -5.034932 1.880790849211783e-38 1635415379
-0.746948 -0.699521 -5.017590 1.880790849211783e-38 1635415379
-0.819045 -0.735203 -5.501900 1.880790849211783e-38 1635415379
-0.706399 -0.963122 -4.745204 1.880790849211783e-38 1635415379
-0.738277 -0.954314 -4.959349 1.880790849211783e-38 1635415379
-0.731095 -0.905446 -4.911102 1.880790849211783e-38 1635415379
-0.725931 -0.854708 -4.876416 1.880790849211783e-38 1635415379
-0.725575 -1.128275 -4.874021 1.880790849211783e-38 1635415379
-0.711915 -0.798672 -4.782260 1.880790849211783e-38 1635415379
-0.730313 -0.775715 -4.905846 1.880790849211783e-38 1635415379
-0.721694 -1.075150 -4.847950 1.880790849211783e-38 1635415379
-0.727953 -1.048093 -4.889995 1.880790849211783e-38 1635415379
-0.855968 -0.711162 -5.633222 1.880790849211783e-38 1635415379
-0.863438 -0.687996 -5.682381 1.880790849211783e-38 1635415379
-0.762862 -0.761486 -5.020479 1.880790849211783e-38 1635415379
-0.761366 -0.726841 -5.010634 1.880790849211783e-38 1635415379
-0.854940 -0.784761 -5.626453 1.880790849211783e-38 1635415379
-0.853093 -0.750563 -5.614300 1.880790849211783e-38 1635415379
-0.721781 -0.964557 -4.750120 1.880790849211783e-38 1635415379
-0.748995 -0.948947 -4.929223 1.880790849211783e-38 1635415379
-0.730739 -0.887038 -4.809072 1.880790849211783e-38 1635415379
-0.741411 -0.855603 -4.879307 1.880790849211783e-38 1635415379
-0.726200 -0.798523 -4.779201 1.880790849211783e-38 1635415379
-0.734515 -0.764689 -4.833925 1.880790849211783e-38 1635415379
-0.733447 -1.070967 -4.826898 1.880790849211783e-38 1635415379
-0.736035 -1.038690 -4.843927 1.880790849211783e-38 1635415379
-0.770989 -0.754624 -4.972935 1.880790849211783e-38 1635415379
-0.775539 -0.725965 -5.002279 1.880790849211783e-38 1635415379
-0.876039 -0.788482 -5.650513 1.880790849211783e-38 1635415379
-0.867988 -0.748809 -5.598586 1.880790849211783e-38 1635415379
-0.728265 -0.954286 -4.697361 1.880790849211783e-38 1635415379
-0.763667 -0.948709 -4.925704 1.880790849211783e-38 1635415379
-0.754011 -0.897479 -4.863426 1.880790849211783e-38 1635415379
-0.748774 -0.847287 -4.829644 1.880790849211783e-38 1635415379
-0.730386 -0.787499 -4.711043 1.880790849211783e-38 1635415379
-0.758334 -0.774125 -4.891307 1.880790849211783e-38 1635415379
-0.749264 -1.072774 -4.832804 1.880790849211783e-38 1635415379
-0.746694 -1.033229 -4.816230 1.880790849211783e-38 1635415379
-0.789581 -0.758078 -4.993339 1.880790849211783e-38 1635415379
-0.787475 -0.723076 -4.980021 1.880790849211783e-38 1635415379
-0.906053 -0.799939 -5.729914 1.880790849211783e-38 1635415379
-0.891548 -0.754461 -5.638183 1.880790849211783e-38 1635415379
-0.745618 -0.958385 -4.715315 1.880790849211783e-38 1635415379
-0.772432 -0.941292 -4.884888 1.880790849211783e-38 1635415379
-0.776276 -0.906354 -4.909200 1.880790849211783e-38 1635415379
-0.767111 -0.851477 -4.851237 1.880790849211783e-38 1635415379
-0.743332 -0.786169 -4.700863 1.880790849211783e-38 1635415379
-0.772936 -0.773979 -4.888079 1.880790849211783e-38 1635415379
-0.773156 -1.085865 -4.889468 1.880790849211783e-38 1635415379
-0.771827 -1.047633 -4.881066 1.880790849211783e-38 1635415379
-0.806163 -0.759516 -5.000402 1.880790849211783e-38 1635415379
-0.803021 -0.723554 -4.980916 1.880790849211783e-38 1635415379
-0.762185 -0.961348 -4.727616 1.880790849211783e-38 1635415379
-0.793512 -0.948887 -4.921929 1.880790849211783e-38 1635415379
-0.784815 -0.899178 -4.867988 1.880790849211783e-38 1635415379
-0.781697 -0.851432 -4.848649 1.880790849211783e-38 1635415379
-0.765884 -0.794863 -4.750559 1.880790849211783e-38 1635415379
-0.786483 -0.772808 -4.878331 1.880790849211783e-38 1635415379
-0.795626 -1.096514 -4.935044 1.880790849211783e-38 1635415379
-0.784733 -1.045220 -4.867480 1.880790849211783e-38 1635415379
-0.808411 -0.747651 -4.919867 1.880790849211783e-38 1635415379
-0.824972 -0.729685 -5.020658 1.880790849211783e-38 1635415379
-0.773369 -0.957546 -4.706608 1.880790849211783e-38 1635415379
-0.805068 -0.945032 -4.899527 1.880790849211783e-38 1635415379
-0.802182 -0.902202 -4.881963 1.880790849211783e-38 1635415379
-0.794168 -0.849135 -4.833189 1.880790849211783e-38 1635415379
-0.772787 -0.787302 -4.703065 1.880790849211783e-38 1635415379
-0.793094 -0.764996 -4.826650 1.880790849211783e-38 1635415379
-0.802160 -1.048816 -4.881828 1.880790849211783e-38 1635415379
-0.838167 -0.761204 -5.006547 1.880790849211783e-38 1635415379
-0.828053 -0.719213 -4.946130 1.880790849211783e-38 1635415379
-0.797308 -0.969399 -4.762484 1.880790849211783e-38 1635415379
-0.824834 -0.950788 -4.926905 1.880790849211783e-38 1635415379
-0.811374 -0.896098 -4.846506 1.880790849211783e-38 1635415379
-0.818178 -0.859043 -4.887146 1.880790849211783e-38 1635415379
-0.799294 -0.799636 -4.774350 1.880790849211783e-38 1635415379
-0.811193 -0.768356 -4.845421 1.880790849211783e-38 1635415379
-0.819703 -1.052441 -4.896253 1.880790849211783e-38 1635415379
-0.831631 -0.741906 -4.877136 1.880790849211783e-38 1635415379
-0.846550 -0.722271 -4.964626 1.880790849211783e-38 1635415379
-0.806824 -0.963614 -4.731650 1.880790849211783e-38 1635415379
-0.842557 -0.954034 -4.941208 1.880790849211783e-38 1635415379
-0.823262 -0.893140 -4.828052 1.880790849211783e-38 1635415379
-0.825652 -0.851554 -4.842066 1.880790849211783e-38 1635415379
-0.808070 -0.794112 -4.738958 1.880790849211783e-38 1635415379
-0.813188 -0.756618 -4.768972 1.880790849211783e-38 1635415379
-0.852830 -0.747597 -4.912000 1.880790849211783e-38 1635415379
-0.851544 -0.713908 -4.904596 1.880790849211783e-38 1635415379
-0.829193 -0.973122 -4.775860 1.880790849211783e-38 1635415379
-0.851032 -0.946887 -4.901649 1.880790849211783e-38 1635415379
-0.842383 -0.898006 -4.851832 1.880790849211783e-38 1635415379
-0.848370 -0.859781 -4.886311 1.880790849211783e-38 1635415379
-0.819103 -0.790969 -4.717747 1.880790849211783e-38 1635415379
-0.839188 -0.767243 -4.833430 1.880790849211783e-38 1635415379
-0.867151 -0.747176 -4.906637 1.880790849211783e-38 1635415379
-0.864969 -0.712784 -4.894288 1.880790849211783e-38 1635415379
-0.847908 -0.978100 -4.797756 1.880790849211783e-38 1635415379
